0.0767865 0.0363654 0.0363654 2 7 3
0.0711769 0.0367111 0.0367111 2 7 3
0.0657399 0.0370558 0.0370558 2 7 3
0.0604757 0.0373993 0.0373993 2 7 3
0.0553841 0.0377412 0.0377412 2 7 3
0.0504642 0.0380811 0.0380811 2 7 3
0.0457145 0.0384188 0.0384188 2 7 3
0.041133 0.038754 0.038754 2 7 3
0.0367173 0.0390863 0.0390863 2 7 3
0.0324646 0.0394157 0.0394157 2 7 3
0.0283715 0.0397418 0.0397418 2 7 3
0.0244345 0.0400645 0.0400645 2 7 3
0.0206497 0.0403836 0.0403836 2 7 3
0.017013 0.0406989 0.0406989 2 7 3
0.0135202 0.0410103 0.0410103 2 7 3
0.0101667 0.0413178 0.0413178 2 7 3
0.00694814 0.0416212 0.0416212 2 7 3
0.00385992 0.0419205 0.0419205 2 7 3
0.00089744 0.0422157 0.0422157 2 7 3
-0.00194386 0.0425066 0.0425066 2 7 3
0.0820526 0.01 0.01 2 2 3
0.0819532 0.0100038 0.0100038 2 2 3
0.0818538 0.0100076 0.0100076 2 2 3
0.0817545 0.0100114 0.0100114 2 2 3
0.0816554 0.0100152 0.0100152 2 2 3
0.0815564 0.010019 0.010019 2 2 3
0.0814574 0.0100228 0.0100228 2 2 3
0.0813586 0.0100266 0.0100266 2 2 3
0.0812598 0.0100304 0.0100304 2 2 3
0.0811612 0.0100342 0.0100342 2 2 3
0.0810626 0.010038 0.010038 2 2 3
0.0809642 0.0100418 0.0100418 2 2 3
0.0808658 0.0100456 0.0100456 2 2 3
0.0807675 0.0100494 0.0100494 2 2 3
0.0806693 0.0100532 0.0100532 2 2 3
0.0805713 0.010057 0.010057 2 2 3
0.0804733 0.0100608 0.0100608 2 2 3
0.0803754 0.0100646 0.0100646 2 2 3
0.0802776 0.0100684 0.0100684 2 2 3
0.0801799 0.0100722 0.0100722 2 2 3
0.0800823 0.010076 0.010076 2 2 3
0.0799848 0.0100798 0.0100798 2 2 3
0.0798874 0.0100836 0.0100836 2 2 3
0.0797901 0.0100874 0.0100874 2 2 3
0.0796928 0.0100912 0.0100912 2 2 3
0.0795957 0.010095 0.010095 2 2 3
0.0794987 0.0100988 0.0100988 2 2 3
0.0794017 0.0101026 0.0101026 2 2 3
0.0793049 0.0101063 0.0101063 2 2 3
0.0792081 0.0101101 0.0101101 2 2 3
0.0791115 0.0101139 0.0101139 2 2 3
0.0790149 0.0101177 0.0101177 2 2 3
0.0789184 0.0101215 0.0101215 2 2 3
0.078822 0.0101253 0.0101253 2 2 3
0.0787257 0.0101291 0.0101291 2 2 3
0.0786295 0.0101328 0.0101328 2 2 3
0.0785334 0.0101366 0.0101366 2 2 3
0.0784374 0.0101404 0.0101404 2 2 3
0.0783415 0.0101442 0.0101442 2 2 3
0.0782456 0.010148 0.010148 2 2 3
0.0781499 0.0101517 0.0101517 2 2 3
0.0780543 0.0101555 0.0101555 2 2 3
0.0779587 0.0101593 0.0101593 2 2 3
0.0778632 0.0101631 0.0101631 2 2 3
0.0777679 0.0101669 0.0101669 2 2 3
0.0776726 0.0101706 0.0101706 2 2 3
0.0775774 0.0101744 0.0101744 2 2 3
0.0774823 0.0101782 0.0101782 2 2 3
0.0773873 0.010182 0.010182 2 2 3
0.0772923 0.0101857 0.0101857 2 2 3
0.0771975 0.0101895 0.0101895 2 2 3
0.0771028 0.0101933 0.0101933 2 2 3
0.0770081 0.010197 0.010197 2 2 3
0.0769136 0.0102008 0.0102008 2 2 3
0.0768191 0.0102046 0.0102046 2 2 3
0.0767247 0.0102084 0.0102084 2 2 3
0.0766304 0.0102121 0.0102121 2 2 3
0.0765362 0.0102159 0.0102159 2 2 3
0.0764421 0.0102197 0.0102197 2 2 3
0.0763481 0.0102234 0.0102234 2 2 3
0.0762541 0.0102272 0.0102272 2 2 3
0.0761603 0.010231 0.010231 2 2 3
0.0760665 0.0102347 0.0102347 2 2 3
0.0759729 0.0102385 0.0102385 2 2 3
0.0758793 0.0102422 0.0102422 2 2 3
0.0757858 0.010246 0.010246 2 2 3
0.0756924 0.0102498 0.0102498 2 2 3
0.075599 0.0102535 0.0102535 2 2 3
0.0755058 0.0102573 0.0102573 2 2 3
0.0754127 0.0102611 0.0102611 2 2 3
0.0753196 0.0102648 0.0102648 2 2 3
0.0752266 0.0102686 0.0102686 2 2 3
0.0751338 0.0102723 0.0102723 2 2 3
0.075041 0.0102761 0.0102761 2 2 3
0.0749483 0.0102798 0.0102798 2 2 3
0.0748556 0.0102836 0.0102836 2 2 3
0.0747631 0.0102874 0.0102874 2 2 3
0.0746707 0.0102911 0.0102911 2 2 3
0.0745783 0.0102949 0.0102949 2 2 3
0.074486 0.0102986 0.0102986 2 2 3
0.0743938 0.0103024 0.0103024 2 2 3
0.0743017 0.0103061 0.0103061 2 2 3
0.0742097 0.0103099 0.0103099 2 2 3
0.0741178 0.0103136 0.0103136 2 2 3
0.0740259 0.0103174 0.0103174 2 2 3
0.0739342 0.0103211 0.0103211 2 2 3
0.0738425 0.0103249 0.0103249 2 2 3
0.0737509 0.0103286 0.0103286 2 2 3
0.0736594 0.0103324 0.0103324 2 2 3
0.073568 0.0103361 0.0103361 2 2 3
0.0734766 0.0103399 0.0103399 2 2 3
0.0733854 0.0103436 0.0103436 2 2 3
0.0732942 0.0103474 0.0103474 2 2 3
0.0732031 0.0103511 0.0103511 2 2 3
0.0731121 0.0103548 0.0103548 2 2 3
0.0730212 0.0103586 0.0103586 2 2 3
0.0729304 0.0103623 0.0103623 2 2 3
0.0728396 0.0103661 0.0103661 2 2 3
0.072749 0.0103698 0.0103698 2 2 3
0.0726584 0.0103736 0.0103736 2 2 3
0.0725679 0.0103773 0.0103773 2 2 3
0.0724775 0.010381 0.010381 2 2 3
0.0723872 0.0103848 0.0103848 2 2 3
0.0722969 0.0103885 0.0103885 2 2 3
0.0722068 0.0103923 0.0103923 2 2 3
0.0721167 0.010396 0.010396 2 2 3
0.0720267 0.0103997 0.0103997 2 2 3
0.0719368 0.0104035 0.0104035 2 2 3
0.0718469 0.0104072 0.0104072 2 2 3
0.0717572 0.0104109 0.0104109 2 2 3
0.0716675 0.0104147 0.0104147 2 2 3
0.0715779 0.0104184 0.0104184 2 2 3
0.0714884 0.0104221 0.0104221 2 2 3
0.071399 0.0104259 0.0104259 2 2 3
0.0713097 0.0104296 0.0104296 2 2 3
0.0712204 0.0104333 0.0104333 2 2 3
0.0711312 0.0104371 0.0104371 2 2 3
0.0710421 0.0104408 0.0104408 2 2 3
0.0709531 0.0104445 0.0104445 2 2 3
0.0708642 0.0104483 0.0104483 2 2 3
0.0707753 0.010452 0.010452 2 2 3
0.0706866 0.0104557 0.0104557 2 2 3
0.0705979 0.0104594 0.0104594 2 2 3
0.0705093 0.0104632 0.0104632 2 2 3
0.0704207 0.0104669 0.0104669 2 2 3
0.0703323 0.0104706 0.0104706 2 2 3
0.0702439 0.0104744 0.0104744 2 2 3
0.0701556 0.0104781 0.0104781 2 2 3
0.0700674 0.0104818 0.0104818 2 2 3
0.0699793 0.0104855 0.0104855 2 2 3
0.0698912 0.0104892 0.0104892 2 2 3
0.0698033 0.010493 0.010493 2 2 3
0.0697154 0.0104967 0.0104967 2 2 3
0.0696276 0.0105004 0.0105004 2 2 3
0.0695398 0.0105041 0.0105041 2 2 3
0.0694522 0.0105079 0.0105079 2 2 3
0.0693646 0.0105116 0.0105116 2 2 3
0.0692771 0.0105153 0.0105153 2 2 3
0.0691897 0.010519 0.010519 2 2 3
0.0691024 0.0105227 0.0105227 2 2 3
0.0690151 0.0105265 0.0105265 2 2 3
0.0689279 0.0105302 0.0105302 2 2 3
0.0688408 0.0105339 0.0105339 2 2 3
0.0687538 0.0105376 0.0105376 2 2 3
0.0686669 0.0105413 0.0105413 2 2 3
0.06858 0.010545 0.010545 2 2 3
0.0684932 0.0105487 0.0105487 2 2 3
0.0684065 0.0105525 0.0105525 2 2 3
0.0683199 0.0105562 0.0105562 2 2 3
0.0682333 0.0105599 0.0105599 2 2 3
0.0681468 0.0105636 0.0105636 2 2 3
0.0680604 0.0105673 0.0105673 2 2 3
0.0679741 0.010571 0.010571 2 2 3
0.0678879 0.0105747 0.0105747 2 2 3
0.0678017 0.0105784 0.0105784 2 2 3
0.0677156 0.0105822 0.0105822 2 2 3
0.0676296 0.0105859 0.0105859 2 2 3
0.0675437 0.0105896 0.0105896 2 2 3
0.0674578 0.0105933 0.0105933 2 2 3
0.067372 0.010597 0.010597 2 2 3
0.0672863 0.0106007 0.0106007 2 2 3
0.0672007 0.0106044 0.0106044 2 2 3
0.0671151 0.0106081 0.0106081 2 2 3
0.0670296 0.0106118 0.0106118 2 2 3
0.0669442 0.0106155 0.0106155 2 2 3
0.0668589 0.0106192 0.0106192 2 2 3
0.0667737 0.0106229 0.0106229 2 2 3
0.0666885 0.0106266 0.0106266 2 2 3
0.0666034 0.0106303 0.0106303 2 2 3
0.0665184 0.010634 0.010634 2 2 3
0.0664334 0.0106377 0.0106377 2 2 3
0.0663485 0.0106414 0.0106414 2 2 3
0.0662637 0.0106451 0.0106451 2 2 3
0.066179 0.0106488 0.0106488 2 2 3
0.0660944 0.0106525 0.0106525 2 2 3
0.0660098 0.0106562 0.0106562 2 2 3
0.0659253 0.0106599 0.0106599 2 2 3
0.0658408 0.0106636 0.0106636 2 2 3
0.0657565 0.0106673 0.0106673 2 2 3
0.0656722 0.010671 0.010671 2 2 3
0.065588 0.0106747 0.0106747 2 2 3
0.0655039 0.0106784 0.0106784 2 2 3
0.0654198 0.0106821 0.0106821 2 2 3
0.0653359 0.0106858 0.0106858 2 2 3
0.0652519 0.0106895 0.0106895 2 2 3
0.0651681 0.0106932 0.0106932 2 2 3
0.0650844 0.0106969 0.0106969 2 2 3
0.0650007 0.0107006 0.0107006 2 2 3
0.0649171 0.0107043 0.0107043 2 2 3
0.0648335 0.010708 0.010708 2 2 3
0.06475 0.0107117 0.0107117 2 2 3
0.0646667 0.0107154 0.0107154 2 2 3
0.0645833 0.0107191 0.0107191 2 2 3
0.0645001 0.0107227 0.0107227 2 2 3
0.0644169 0.0107264 0.0107264 2 2 3
0.0643338 0.0107301 0.0107301 2 2 3
0.0642508 0.0107338 0.0107338 2 2 3
0.0641678 0.0107375 0.0107375 2 2 3
0.0640849 0.0107412 0.0107412 2 2 3
0.0640021 0.0107449 0.0107449 2 2 3
0.0639194 0.0107486 0.0107486 2 2 3
0.0638367 0.0107523 0.0107523 2 2 3
0.0637541 0.0107559 0.0107559 2 2 3
0.0636716 0.0107596 0.0107596 2 2 3
0.0635891 0.0107633 0.0107633 2 2 3
0.0635068 0.010767 0.010767 2 2 3
0.0634245 0.0107707 0.0107707 2 2 3
0.0633422 0.0107744 0.0107744 2 2 3
0.06326 0.010778 0.010778 2 2 3
0.063178 0.0107817 0.0107817 2 2 3
0.0630959 0.0107854 0.0107854 2 2 3
0.063014 0.0107891 0.0107891 2 2 3
0.0629321 0.0107928 0.0107928 2 2 3
0.0628503 0.0107965 0.0107965 2 2 3
0.0627685 0.0108001 0.0108001 2 2 3
0.0626869 0.0108038 0.0108038 2 2 3
0.0626053 0.0108075 0.0108075 2 2 3
0.0625237 0.0108112 0.0108112 2 2 3
0.0624423 0.0108149 0.0108149 2 2 3
0.0623609 0.0108185 0.0108185 2 2 3
0.0622796 0.0108222 0.0108222 2 2 3
0.0621983 0.0108259 0.0108259 2 2 3
0.0621172 0.0108296 0.0108296 2 2 3
0.0620361 0.0108332 0.0108332 2 2 3
0.061955 0.0108369 0.0108369 2 2 3
0.061874 0.0108406 0.0108406 2 2 3
0.0617931 0.0108443 0.0108443 2 2 3
0.0617123 0.0108479 0.0108479 2 2 3
0.0616316 0.0108516 0.0108516 2 2 3
0.0615509 0.0108553 0.0108553 2 2 3
0.0614703 0.010859 0.010859 2 2 3
0.0613897 0.0108626 0.0108626 2 2 3
0.0613092 0.0108663 0.0108663 2 2 3
0.0612288 0.01087 0.01087 2 2 3
0.0611485 0.0108736 0.0108736 2 2 3
0.0610682 0.0108773 0.0108773 2 2 3
0.060988 0.010881 0.010881 2 2 3
0.0609078 0.0108847 0.0108847 2 2 3
0.0608278 0.0108883 0.0108883 2 2 3
0.0607478 0.010892 0.010892 2 2 3
0.0606678 0.0108957 0.0108957 2 2 3
0.060588 0.0108993 0.0108993 2 2 3
0.0605082 0.010903 0.010903 2 2 3
0.0604284 0.0109067 0.0109067 2 2 3
0.0603488 0.0109103 0.0109103 2 2 3
0.0602692 0.010914 0.010914 2 2 3
0.0601897 0.0109177 0.0109177 2 2 3
0.0601102 0.0109213 0.0109213 2 2 3
0.0600308 0.010925 0.010925 2 2 3
0.0599515 0.0109287 0.0109287 2 2 3
0.0598722 0.0109323 0.0109323 2 2 3
0.059793 0.010936 0.010936 2 2 3
0.0597139 0.0109397 0.0109397 2 2 3
0.0596349 0.0109433 0.0109433 2 2 3
0.0595559 0.010947 0.010947 2 2 3
0.059477 0.0109506 0.0109506 2 2 3
0.0593981 0.0109543 0.0109543 2 2 3
0.0593193 0.010958 0.010958 2 2 3
0.0592406 0.0109616 0.0109616 2 2 3
0.059162 0.0109653 0.0109653 2 2 3
0.0590834 0.0109689 0.0109689 2 2 3
0.0590049 0.0109726 0.0109726 2 2 3
0.0589264 0.0109763 0.0109763 2 2 3
0.058848 0.0109799 0.0109799 2 2 3
0.0587697 0.0109836 0.0109836 2 2 3
0.0586914 0.0109872 0.0109872 2 2 3
0.0586132 0.0109909 0.0109909 2 2 3
0.0585351 0.0109946 0.0109946 2 2 3
0.0584571 0.0109982 0.0109982 2 2 3
0.0583791 0.0110019 0.0110019 2 2 3
0.0583012 0.0110055 0.0110055 2 2 3
0.0582233 0.0110092 0.0110092 2 2 3
0.0581455 0.0110128 0.0110128 2 2 3
0.0580678 0.0110165 0.0110165 2 2 3
0.0579901 0.0110201 0.0110201 2 2 3
0.0579125 0.0110238 0.0110238 2 2 3
0.057835 0.0110274 0.0110274 2 2 3
0.0577575 0.0110311 0.0110311 2 2 3
0.0576801 0.0110348 0.0110348 2 2 3
0.0576028 0.0110384 0.0110384 2 2 3
0.0575255 0.0110421 0.0110421 2 2 3
0.0574483 0.0110457 0.0110457 2 2 3
0.0573711 0.0110494 0.0110494 2 2 3
0.057294 0.011053 0.011053 2 2 3
0.057217 0.0110567 0.0110567 2 2 3
0.0571401 0.0110603 0.0110603 2 2 3
0.0570632 0.011064 0.011064 2 2 3
0.0569864 0.0110676 0.0110676 2 2 3
0.0569096 0.0110713 0.0110713 2 2 3
0.0568329 0.0110749 0.0110749 2 2 3
0.0567563 0.0110785 0.0110785 2 2 3
0.0566797 0.0110822 0.0110822 2 2 3
0.0566032 0.0110858 0.0110858 2 2 3
0.0565268 0.0110895 0.0110895 2 2 3
0.0564504 0.0110931 0.0110931 2 2 3
0.0563741 0.0110968 0.0110968 2 2 3
0.0562978 0.0111004 0.0111004 2 2 3
0.0562216 0.0111041 0.0111041 2 2 3
0.0561455 0.0111077 0.0111077 2 2 3
0.0560695 0.0111114 0.0111114 2 2 3
0.0559935 0.011115 0.011115 2 2 3
0.0559175 0.0111186 0.0111186 2 2 3
0.0558417 0.0111223 0.0111223 2 2 3
0.0557659 0.0111259 0.0111259 2 2 3
0.0556901 0.0111296 0.0111296 2 2 3
0.0556144 0.0111332 0.0111332 2 2 3
0.0555388 0.0111369 0.0111369 2 2 3
0.0554633 0.0111405 0.0111405 2 2 3
0.0553878 0.0111441 0.0111441 2 2 3
0.0553123 0.0111478 0.0111478 2 2 3
0.055237 0.0111514 0.0111514 2 2 3
0.0551616 0.011155 0.011155 2 2 3
0.0550864 0.0111587 0.0111587 2 2 3
0.0550112 0.0111623 0.0111623 2 2 3
0.0549361 0.011166 0.011166 2 2 3
0.054861 0.0111696 0.0111696 2 2 3
0.054786 0.0111732 0.0111732 2 2 3
0.0547111 0.0111769 0.0111769 2 2 3
0.0546362 0.0111805 0.0111805 2 2 3
0.0545614 0.0111841 0.0111841 2 2 3
0.0544867 0.0111878 0.0111878 2 2 3
0.054412 0.0111914 0.0111914 2 2 3
0.0543373 0.011195 0.011195 2 2 3
0.0542628 0.0111987 0.0111987 2 2 3
0.0541883 0.0112023 0.0112023 2 2 3
0.0541138 0.011206 0.011206 2 2 3
0.0540394 0.0112096 0.0112096 2 2 3
0.0539651 0.0112132 0.0112132 2 2 3
0.0538909 0.0112168 0.0112168 2 2 3
0.0538167 0.0112205 0.0112205 2 2 3
0.0537425 0.0112241 0.0112241 2 2 3
0.0536684 0.0112277 0.0112277 2 2 3
0.0535944 0.0112314 0.0112314 2 2 3
0.0535205 0.011235 0.011235 2 2 3
0.0534466 0.0112386 0.0112386 2 2 3
0.0533727 0.0112423 0.0112423 2 2 3
0.0532989 0.0112459 0.0112459 2 2 3
0.0532252 0.0112495 0.0112495 2 2 3
0.0531516 0.0112531 0.0112531 2 2 3
0.053078 0.0112568 0.0112568 2 2 3
0.0530044 0.0112604 0.0112604 2 2 3
0.0529309 0.011264 0.011264 2 2 3
0.0528575 0.0112677 0.0112677 2 2 3
0.0527842 0.0112713 0.0112713 2 2 3
0.0527109 0.0112749 0.0112749 2 2 3
0.0526376 0.0112785 0.0112785 2 2 3
0.0525645 0.0112822 0.0112822 2 2 3
0.0524913 0.0112858 0.0112858 2 2 3
0.0524183 0.0112894 0.0112894 2 2 3
0.0523453 0.011293 0.011293 2 2 3
0.0522723 0.0112967 0.0112967 2 2 3
0.0521994 0.0113003 0.0113003 2 2 3
0.0521266 0.0113039 0.0113039 2 2 3
0.0520539 0.0113075 0.0113075 2 2 3
0.0519811 0.0113112 0.0113112 2 2 3
0.0519085 0.0113148 0.0113148 2 2 3
0.0518359 0.0113184 0.0113184 2 2 3
0.0517634 0.011322 0.011322 2 2 3
0.0516909 0.0113256 0.0113256 2 2 3
0.0516185 0.0113293 0.0113293 2 2 3
0.0515461 0.0113329 0.0113329 2 2 3
0.0514738 0.0113365 0.0113365 2 2 3
0.0514016 0.0113401 0.0113401 2 2 3
0.0513294 0.0113437 0.0113437 2 2 3
0.0512573 0.0113474 0.0113474 2 2 3
0.0511852 0.011351 0.011351 2 2 3
0.0511132 0.0113546 0.0113546 2 2 3
0.0510413 0.0113582 0.0113582 2 2 3
0.0509694 0.0113618 0.0113618 2 2 3
0.0508976 0.0113654 0.0113654 2 2 3
0.0508258 0.0113691 0.0113691 2 2 3
0.0507541 0.0113727 0.0113727 2 2 3
0.0506824 0.0113763 0.0113763 2 2 3
0.0506108 0.0113799 0.0113799 2 2 3
0.0505393 0.0113835 0.0113835 2 2 3
0.0504678 0.0113871 0.0113871 2 2 3
0.0503964 0.0113907 0.0113907 2 2 3
0.050325 0.0113944 0.0113944 2 2 3
0.0502537 0.011398 0.011398 2 2 3
0.0501824 0.0114016 0.0114016 2 2 3
0.0501112 0.0114052 0.0114052 2 2 3
0.0500401 0.0114088 0.0114088 2 2 3
0.049969 0.0114124 0.0114124 2 2 3
0.0498979 0.011416 0.011416 2 2 3
0.049827 0.0114196 0.0114196 2 2 3
0.0497561 0.0114233 0.0114233 2 2 3
0.0496852 0.0114269 0.0114269 2 2 3
0.0496144 0.0114305 0.0114305 2 2 3
0.0495436 0.0114341 0.0114341 2 2 3
0.049473 0.0114377 0.0114377 2 2 3
0.0494023 0.0114413 0.0114413 2 2 3
0.0493317 0.0114449 0.0114449 2 2 3
0.0492612 0.0114485 0.0114485 2 2 3
0.0491908 0.0114521 0.0114521 2 2 3
0.0491203 0.0114557 0.0114557 2 2 3
0.04905 0.0114593 0.0114593 2 2 3
0.0489797 0.011463 0.011463 2 2 3
0.0489095 0.0114666 0.0114666 2 2 3
0.0488393 0.0114702 0.0114702 2 2 3
0.0487691 0.0114738 0.0114738 2 2 3
0.0486991 0.0114774 0.0114774 2 2 3
0.048629 0.011481 0.011481 2 2 3
0.0485591 0.0114846 0.0114846 2 2 3
0.0484892 0.0114882 0.0114882 2 2 3
0.0484193 0.0114918 0.0114918 2 2 3
0.0483495 0.0114954 0.0114954 2 2 3
0.0482798 0.011499 0.011499 2 2 3
0.0482101 0.0115026 0.0115026 2 2 3
0.0481405 0.0115062 0.0115062 2 2 3
0.0480709 0.0115098 0.0115098 2 2 3
0.0480014 0.0115134 0.0115134 2 2 3
0.0479319 0.011517 0.011517 2 2 3
0.0478625 0.0115206 0.0115206 2 2 3
0.0477931 0.0115242 0.0115242 2 2 3
0.0477238 0.0115278 0.0115278 2 2 3
0.0476546 0.0115314 0.0115314 2 2 3
0.0475854 0.011535 0.011535 2 2 3
0.0475162 0.0115386 0.0115386 2 2 3
0.0474472 0.0115422 0.0115422 2 2 3
0.0473781 0.0115458 0.0115458 2 2 3
0.0473092 0.0115494 0.0115494 2 2 3
0.0472402 0.011553 0.011553 2 2 3
0.0471714 0.0115566 0.0115566 2 2 3
0.0471026 0.0115602 0.0115602 2 2 3
0.0470338 0.0115638 0.0115638 2 2 3
0.0469651 0.0115674 0.0115674 2 2 3
0.0468964 0.011571 0.011571 2 2 3
0.0468278 0.0115746 0.0115746 2 2 3
0.0467593 0.0115782 0.0115782 2 2 3
0.0466908 0.0115818 0.0115818 2 2 3
0.0466224 0.0115854 0.0115854 2 2 3
0.046554 0.011589 0.011589 2 2 3
0.0464857 0.0115926 0.0115926 2 2 3
0.0464174 0.0115962 0.0115962 2 2 3
0.0463492 0.0115998 0.0115998 2 2 3
0.046281 0.0116034 0.0116034 2 2 3
0.0462129 0.0116069 0.0116069 2 2 3
0.0461448 0.0116105 0.0116105 2 2 3
0.0460768 0.0116141 0.0116141 2 2 3
0.0460089 0.0116177 0.0116177 2 2 3
0.045941 0.0116213 0.0116213 2 2 3
0.0458731 0.0116249 0.0116249 2 2 3
0.0458053 0.0116285 0.0116285 2 2 3
0.0457376 0.0116321 0.0116321 2 2 3
0.0456699 0.0116357 0.0116357 2 2 3
0.0456022 0.0116393 0.0116393 2 2 3
0.0455346 0.0116429 0.0116429 2 2 3
0.0454671 0.0116465 0.0116465 2 2 3
0.0453996 0.01165 0.01165 2 2 3
0.0453322 0.0116536 0.0116536 2 2 3
0.0452648 0.0116572 0.0116572 2 2 3
0.0451975 0.0116608 0.0116608 2 2 3
0.0451302 0.0116644 0.0116644 2 2 3
0.045063 0.011668 0.011668 2 2 3
0.0449959 0.0116716 0.0116716 2 2 3
0.0449287 0.0116752 0.0116752 2 2 3
0.0448617 0.0116787 0.0116787 2 2 3
0.0447947 0.0116823 0.0116823 2 2 3
0.0447277 0.0116859 0.0116859 2 2 3
0.0446608 0.0116895 0.0116895 2 2 3
0.0445939 0.0116931 0.0116931 2 2 3
0.0445271 0.0116967 0.0116967 2 2 3
0.0444604 0.0117003 0.0117003 2 2 3
0.0443937 0.0117038 0.0117038 2 2 3
0.044327 0.0117074 0.0117074 2 2 3
0.0442604 0.011711 0.011711 2 2 3
0.0441939 0.0117146 0.0117146 2 2 3
0.0441274 0.0117182 0.0117182 2 2 3
0.044061 0.0117218 0.0117218 2 2 3
0.0439946 0.0117253 0.0117253 2 2 3
0.0439282 0.0117289 0.0117289 2 2 3
0.0438619 0.0117325 0.0117325 2 2 3
0.0437957 0.0117361 0.0117361 2 2 3
0.0437295 0.0117397 0.0117397 2 2 3
0.0436634 0.0117432 0.0117432 2 2 3
0.0435973 0.0117468 0.0117468 2 2 3
0.0435313 0.0117504 0.0117504 2 2 3
0.0434653 0.011754 0.011754 2 2 3
0.0433993 0.0117576 0.0117576 2 2 3
0.0433335 0.0117611 0.0117611 2 2 3
0.0432676 0.0117647 0.0117647 2 2 3
0.0432018 0.0117683 0.0117683 2 2 3
0.0431361 0.0117719 0.0117719 2 2 3
0.0430704 0.0117755 0.0117755 2 2 3
0.0430048 0.011779 0.011779 2 2 3
0.0429392 0.0117826 0.0117826 2 2 3
0.0428737 0.0117862 0.0117862 2 2 3
0.0428082 0.0117898 0.0117898 2 2 3
0.0427428 0.0117933 0.0117933 2 2 3
0.0426774 0.0117969 0.0117969 2 2 3
0.0426121 0.0118005 0.0118005 2 2 3
0.0425468 0.0118041 0.0118041 2 2 3
0.0424816 0.0118076 0.0118076 2 2 3
0.0424164 0.0118112 0.0118112 2 2 3
0.0423513 0.0118148 0.0118148 2 2 3
0.0422862 0.0118184 0.0118184 2 2 3
0.0422212 0.0118219 0.0118219 2 2 3
0.0421562 0.0118255 0.0118255 2 2 3
0.0420912 0.0118291 0.0118291 2 2 3
0.0420264 0.0118326 0.0118326 2 2 3
0.0419615 0.0118362 0.0118362 2 2 3
0.0418968 0.0118398 0.0118398 2 2 3
0.041832 0.0118434 0.0118434 2 2 3
0.0417673 0.0118469 0.0118469 2 2 3
0.0417027 0.0118505 0.0118505 2 2 3
0.0416381 0.0118541 0.0118541 2 2 3
0.0415736 0.0118576 0.0118576 2 2 3
0.0415091 0.0118612 0.0118612 2 2 3
0.0414447 0.0118648 0.0118648 2 2 3
0.0413803 0.0118684 0.0118684 2 2 3
0.0413159 0.0118719 0.0118719 2 2 3
0.0412516 0.0118755 0.0118755 2 2 3
0.0411874 0.0118791 0.0118791 2 2 3
0.0411232 0.0118826 0.0118826 2 2 3
0.041059 0.0118862 0.0118862 2 2 3
0.040995 0.0118898 0.0118898 2 2 3
0.0409309 0.0118933 0.0118933 2 2 3
0.0408669 0.0118969 0.0118969 2 2 3
0.040803 0.0119005 0.0119005 2 2 3
0.0407391 0.011904 0.011904 2 2 3
0.0406752 0.0119076 0.0119076 2 2 3
0.0406114 0.0119112 0.0119112 2 2 3
0.0405476 0.0119147 0.0119147 2 2 3
0.0404839 0.0119183 0.0119183 2 2 3
0.0404203 0.0119219 0.0119219 2 2 3
0.0403566 0.0119254 0.0119254 2 2 3
0.0402931 0.011929 0.011929 2 2 3
0.0402296 0.0119326 0.0119326 2 2 3
0.0401661 0.0119361 0.0119361 2 2 3
0.0401027 0.0119397 0.0119397 2 2 3
0.0400393 0.0119432 0.0119432 2 2 3
0.039976 0.0119468 0.0119468 2 2 3
0.0399127 0.0119504 0.0119504 2 2 3
0.0398495 0.0119539 0.0119539 2 2 3
0.0397863 0.0119575 0.0119575 2 2 3
0.0397231 0.011961 0.011961 2 2 3
0.03966 0.0119646 0.0119646 2 2 3
0.039597 0.0119682 0.0119682 2 2 3
0.039534 0.0119717 0.0119717 2 2 3
0.0394711 0.0119753 0.0119753 2 2 3
0.0394082 0.0119788 0.0119788 2 2 3
0.0393453 0.0119824 0.0119824 2 2 3
0.0392825 0.011986 0.011986 2 2 3
0.0392198 0.0119895 0.0119895 2 2 3
0.039157 0.0119931 0.0119931 2 2 3
0.0390944 0.0119966 0.0119966 2 2 3
0.0390318 0.0120002 0.0120002 2 2 3
0.0389692 0.0120038 0.0120038 2 2 3
0.0389067 0.0120073 0.0120073 2 2 3
0.0388442 0.0120109 0.0120109 2 2 3
0.0387818 0.0120144 0.0120144 2 2 3
0.0387194 0.012018 0.012018 2 2 3
0.038657 0.0120215 0.0120215 2 2 3
0.0385947 0.0120251 0.0120251 2 2 3
0.0385325 0.0120287 0.0120287 2 2 3
0.0384703 0.0120322 0.0120322 2 2 3
0.0384082 0.0120358 0.0120358 2 2 3
0.0383461 0.0120393 0.0120393 2 2 3
0.038284 0.0120429 0.0120429 2 2 3
0.038222 0.0120464 0.0120464 2 2 3
0.03816 0.01205 0.01205 2 2 3
0.0380981 0.0120535 0.0120535 2 2 3
0.0380362 0.0120571 0.0120571 2 2 3
0.0379744 0.0120606 0.0120606 2 2 3
0.0379126 0.0120642 0.0120642 2 2 3
0.0378509 0.0120677 0.0120677 2 2 3
0.0377892 0.0120713 0.0120713 2 2 3
0.0377275 0.0120748 0.0120748 2 2 3
0.0376659 0.0120784 0.0120784 2 2 3
0.0376044 0.0120819 0.0120819 2 2 3
0.0375429 0.0120855 0.0120855 2 2 3
0.0374814 0.012089 0.012089 2 2 3
0.03742 0.0120926 0.0120926 2 2 3
0.0373586 0.0120961 0.0120961 2 2 3
0.0372973 0.0120997 0.0120997 2 2 3
0.037236 0.0121032 0.0121032 2 2 3
0.0371748 0.0121068 0.0121068 2 2 3
0.0371136 0.0121103 0.0121103 2 2 3
0.0370525 0.0121139 0.0121139 2 2 3
0.0369914 0.0121174 0.0121174 2 2 3
0.0369303 0.012121 0.012121 2 2 3
0.0368693 0.0121245 0.0121245 2 2 3
0.0368084 0.0121281 0.0121281 2 2 3
0.0367474 0.0121316 0.0121316 2 2 3
0.0366866 0.0121352 0.0121352 2 2 3
0.0366257 0.0121387 0.0121387 2 2 3
0.036565 0.0121423 0.0121423 2 2 3
0.0365042 0.0121458 0.0121458 2 2 3
0.0364435 0.0121494 0.0121494 2 2 3
0.0363829 0.0121529 0.0121529 2 2 3
0.0363223 0.0121564 0.0121564 2 2 3
0.0362617 0.01216 0.01216 2 2 3
0.0362012 0.0121635 0.0121635 2 2 3
0.0361407 0.0121671 0.0121671 2 2 3
0.0360803 0.0121706 0.0121706 2 2 3
0.0360199 0.0121742 0.0121742 2 2 3
0.0359596 0.0121777 0.0121777 2 2 3
0.0358993 0.0121812 0.0121812 2 2 3
0.0358391 0.0121848 0.0121848 2 2 3
0.0357789 0.0121883 0.0121883 2 2 3
0.0357187 0.0121919 0.0121919 2 2 3
0.0356586 0.0121954 0.0121954 2 2 3
0.0355985 0.012199 0.012199 2 2 3
0.0355385 0.0122025 0.0122025 2 2 3
0.0354785 0.012206 0.012206 2 2 3
0.0354186 0.0122096 0.0122096 2 2 3
0.0353587 0.0122131 0.0122131 2 2 3
0.0352988 0.0122167 0.0122167 2 2 3
0.035239 0.0122202 0.0122202 2 2 3
0.0351792 0.0122237 0.0122237 2 2 3
0.0351195 0.0122273 0.0122273 2 2 3
0.0350598 0.0122308 0.0122308 2 2 3
0.0350002 0.0122343 0.0122343 2 2 3
0.0349406 0.0122379 0.0122379 2 2 3
0.0348811 0.0122414 0.0122414 2 2 3
0.0348216 0.012245 0.012245 2 2 3
0.0347621 0.0122485 0.0122485 2 2 3
0.0347027 0.012252 0.012252 2 2 3
0.0346433 0.0122556 0.0122556 2 2 3
0.034584 0.0122591 0.0122591 2 2 3
0.0345247 0.0122626 0.0122626 2 2 3
0.0344655 0.0122662 0.0122662 2 2 3
0.0344063 0.0122697 0.0122697 2 2 3
0.0343471 0.0122732 0.0122732 2 2 3
0.034288 0.0122768 0.0122768 2 2 3
0.0342289 0.0122803 0.0122803 2 2 3
0.0341699 0.0122839 0.0122839 2 2 3
0.0341109 0.0122874 0.0122874 2 2 3
0.034052 0.0122909 0.0122909 2 2 3
0.0339931 0.0122945 0.0122945 2 2 3
0.0339342 0.012298 0.012298 2 2 3
0.0338754 0.0123015 0.0123015 2 2 3
0.0338167 0.012305 0.012305 2 2 3
0.0337579 0.0123086 0.0123086 2 2 3
0.0336992 0.0123121 0.0123121 2 2 3
0.0336406 0.0123156 0.0123156 2 2 3
0.033582 0.0123192 0.0123192 2 2 3
0.0335235 0.0123227 0.0123227 2 2 3
0.0334649 0.0123262 0.0123262 2 2 3
0.0334065 0.0123298 0.0123298 2 2 3
0.033348 0.0123333 0.0123333 2 2 3
0.0332896 0.0123368 0.0123368 2 2 3
0.0332313 0.0123404 0.0123404 2 2 3
0.033173 0.0123439 0.0123439 2 2 3
0.0331147 0.0123474 0.0123474 2 2 3
0.0330565 0.0123509 0.0123509 2 2 3
0.0329983 0.0123545 0.0123545 2 2 3
0.0329402 0.012358 0.012358 2 2 3
0.0328821 0.0123615 0.0123615 2 2 3
0.0328241 0.0123651 0.0123651 2 2 3
0.0327661 0.0123686 0.0123686 2 2 3
0.0327081 0.0123721 0.0123721 2 2 3
0.0326502 0.0123756 0.0123756 2 2 3
0.0325923 0.0123792 0.0123792 2 2 3
0.0325344 0.0123827 0.0123827 2 2 3
0.0324766 0.0123862 0.0123862 2 2 3
0.0324189 0.0123897 0.0123897 2 2 3
0.0323612 0.0123933 0.0123933 2 2 3
0.0323035 0.0123968 0.0123968 2 2 3
0.0322459 0.0124003 0.0124003 2 2 3
0.0321883 0.0124038 0.0124038 2 2 3
0.0321307 0.0124074 0.0124074 2 2 3
0.0320732 0.0124109 0.0124109 2 2 3
0.0320157 0.0124144 0.0124144 2 2 3
0.0319583 0.0124179 0.0124179 2 2 3
0.0319009 0.0124215 0.0124215 2 2 3
0.0318436 0.012425 0.012425 2 2 3
0.0317863 0.0124285 0.0124285 2 2 3
0.031729 0.012432 0.012432 2 2 3
0.0316718 0.0124355 0.0124355 2 2 3
0.0316146 0.0124391 0.0124391 2 2 3
0.0315575 0.0124426 0.0124426 2 2 3
0.0315004 0.0124461 0.0124461 2 2 3
0.0314433 0.0124496 0.0124496 2 2 3
0.0313863 0.0124531 0.0124531 2 2 3
0.0313293 0.0124567 0.0124567 2 2 3
0.0312724 0.0124602 0.0124602 2 2 3
0.0312155 0.0124637 0.0124637 2 2 3
0.0311586 0.0124672 0.0124672 2 2 3
0.0311018 0.0124707 0.0124707 2 2 3
0.031045 0.0124743 0.0124743 2 2 3
0.0309883 0.0124778 0.0124778 2 2 3
0.0309316 0.0124813 0.0124813 2 2 3
0.030875 0.0124848 0.0124848 2 2 3
0.0308184 0.0124883 0.0124883 2 2 3
0.0307618 0.0124918 0.0124918 2 2 3
0.0307053 0.0124954 0.0124954 2 2 3
0.0306488 0.0124989 0.0124989 2 2 3
0.0305923 0.0125024 0.0125024 2 2 3
0.0305359 0.0125059 0.0125059 2 2 3
0.0304795 0.0125094 0.0125094 2 2 3
0.0304232 0.0125129 0.0125129 2 2 3
0.0303669 0.0125165 0.0125165 2 2 3
0.0303107 0.01252 0.01252 2 2 3
0.0302545 0.0125235 0.0125235 2 2 3
0.0301983 0.012527 0.012527 2 2 3
0.0301422 0.0125305 0.0125305 2 2 3
0.0300861 0.012534 0.012534 2 2 3
0.03003 0.0125375 0.0125375 2 2 3
0.029974 0.0125411 0.0125411 2 2 3
0.029918 0.0125446 0.0125446 2 2 3
0.0298621 0.0125481 0.0125481 2 2 3
0.0298062 0.0125516 0.0125516 2 2 3
0.0297504 0.0125551 0.0125551 2 2 3
0.0296946 0.0125586 0.0125586 2 2 3
0.0296388 0.0125621 0.0125621 2 2 3
0.029583 0.0125656 0.0125656 2 2 3
0.0295274 0.0125692 0.0125692 2 2 3
0.0294717 0.0125727 0.0125727 2 2 3
0.0294161 0.0125762 0.0125762 2 2 3
0.0293605 0.0125797 0.0125797 2 2 3
0.029305 0.0125832 0.0125832 2 2 3
0.0292495 0.0125867 0.0125867 2 2 3
0.029194 0.0125902 0.0125902 2 2 3
0.0291386 0.0125937 0.0125937 2 2 3
0.0290832 0.0125972 0.0125972 2 2 3
0.0290279 0.0126007 0.0126007 2 2 3
0.0289726 0.0126042 0.0126042 2 2 3
0.0289173 0.0126078 0.0126078 2 2 3
0.0288621 0.0126113 0.0126113 2 2 3
0.0288069 0.0126148 0.0126148 2 2 3
0.0287518 0.0126183 0.0126183 2 2 3
0.0286967 0.0126218 0.0126218 2 2 3
0.0286416 0.0126253 0.0126253 2 2 3
0.0285866 0.0126288 0.0126288 2 2 3
0.0285316 0.0126323 0.0126323 2 2 3
0.0284766 0.0126358 0.0126358 2 2 3
0.0284217 0.0126393 0.0126393 2 2 3
0.0283668 0.0126428 0.0126428 2 2 3
0.028312 0.0126463 0.0126463 2 2 3
0.0282572 0.0126498 0.0126498 2 2 3
0.0282024 0.0126533 0.0126533 2 2 3
0.0281477 0.0126568 0.0126568 2 2 3
0.028093 0.0126603 0.0126603 2 2 3
0.0280384 0.0126638 0.0126638 2 2 3
0.0279838 0.0126673 0.0126673 2 2 3
0.0279292 0.0126709 0.0126709 2 2 3
0.0278747 0.0126744 0.0126744 2 2 3
0.0278202 0.0126779 0.0126779 2 2 3
0.0277657 0.0126814 0.0126814 2 2 3
0.0277113 0.0126849 0.0126849 2 2 3
0.027657 0.0126884 0.0126884 2 2 3
0.0276026 0.0126919 0.0126919 2 2 3
0.0275483 0.0126954 0.0126954 2 2 3
0.0274941 0.0126989 0.0126989 2 2 3
0.0274398 0.0127024 0.0127024 2 2 3
0.0273856 0.0127059 0.0127059 2 2 3
0.0273315 0.0127094 0.0127094 2 2 3
0.0272774 0.0127129 0.0127129 2 2 3
0.0272233 0.0127164 0.0127164 2 2 3
0.0271693 0.0127199 0.0127199 2 2 3
0.0271153 0.0127234 0.0127234 2 2 3
0.0270613 0.0127269 0.0127269 2 2 3
0.0270074 0.0127304 0.0127304 2 2 3
0.0269535 0.0127339 0.0127339 2 2 3
0.0268997 0.0127374 0.0127374 2 2 3
0.0268458 0.0127409 0.0127409 2 2 3
0.0267921 0.0127444 0.0127444 2 2 3
0.0267383 0.0127478 0.0127478 2 2 3
0.0266846 0.0127513 0.0127513 2 2 3
0.026631 0.0127548 0.0127548 2 2 3
0.0265774 0.0127583 0.0127583 2 2 3
0.0265238 0.0127618 0.0127618 2 2 3
0.0264702 0.0127653 0.0127653 2 2 3
0.0264167 0.0127688 0.0127688 2 2 3
0.0263632 0.0127723 0.0127723 2 2 3
0.0263098 0.0127758 0.0127758 2 2 3
0.0262564 0.0127793 0.0127793 2 2 3
0.026203 0.0127828 0.0127828 2 2 3
0.0261497 0.0127863 0.0127863 2 2 3
0.0260964 0.0127898 0.0127898 2 2 3
0.0260432 0.0127933 0.0127933 2 2 3
0.0259899 0.0127968 0.0127968 2 2 3
0.0259368 0.0128003 0.0128003 2 2 3
0.0258836 0.0128038 0.0128038 2 2 3
0.0258305 0.0128073 0.0128073 2 2 3
0.0257775 0.0128107 0.0128107 2 2 3
0.0257244 0.0128142 0.0128142 2 2 3
0.0256714 0.0128177 0.0128177 2 2 3
0.0256185 0.0128212 0.0128212 2 2 3
0.0255656 0.0128247 0.0128247 2 2 3
0.0255127 0.0128282 0.0128282 2 2 3
0.0254598 0.0128317 0.0128317 2 2 3
0.025407 0.0128352 0.0128352 2 2 3
0.0253542 0.0128387 0.0128387 2 2 3
0.0253015 0.0128422 0.0128422 2 2 3
0.0252488 0.0128457 0.0128457 2 2 3
0.0251961 0.0128491 0.0128491 2 2 3
0.0251435 0.0128526 0.0128526 2 2 3
0.0250909 0.0128561 0.0128561 2 2 3
0.0250383 0.0128596 0.0128596 2 2 3
0.0249858 0.0128631 0.0128631 2 2 3
0.0249333 0.0128666 0.0128666 2 2 3
0.0248809 0.0128701 0.0128701 2 2 3
0.0248285 0.0128736 0.0128736 2 2 3
0.0247761 0.012877 0.012877 2 2 3
0.0247238 0.0128805 0.0128805 2 2 3
0.0246714 0.012884 0.012884 2 2 3
0.0246192 0.0128875 0.0128875 2 2 3
0.0245669 0.012891 0.012891 2 2 3
0.0245147 0.0128945 0.0128945 2 2 3
0.0244626 0.012898 0.012898 2 2 3
0.0244105 0.0129014 0.0129014 2 2 3
0.0243584 0.0129049 0.0129049 2 2 3
0.0243063 0.0129084 0.0129084 2 2 3
0.0242543 0.0129119 0.0129119 2 2 3
0.0242023 0.0129154 0.0129154 2 2 3
0.0241504 0.0129189 0.0129189 2 2 3
0.0240985 0.0129224 0.0129224 2 2 3
0.0240466 0.0129258 0.0129258 2 2 3
0.0239947 0.0129293 0.0129293 2 2 3
0.0239429 0.0129328 0.0129328 2 2 3
0.0238912 0.0129363 0.0129363 2 2 3
0.0238394 0.0129398 0.0129398 2 2 3
0.0237877 0.0129432 0.0129432 2 2 3
0.0237361 0.0129467 0.0129467 2 2 3
0.0236844 0.0129502 0.0129502 2 2 3
0.0236328 0.0129537 0.0129537 2 2 3
0.0235813 0.0129572 0.0129572 2 2 3
0.0235298 0.0129607 0.0129607 2 2 3
0.0234783 0.0129641 0.0129641 2 2 3
0.0234268 0.0129676 0.0129676 2 2 3
0.0233754 0.0129711 0.0129711 2 2 3
0.023324 0.0129746 0.0129746 2 2 3
0.0232727 0.0129781 0.0129781 2 2 3
0.0232214 0.0129815 0.0129815 2 2 3
0.0231701 0.012985 0.012985 2 2 3
0.0231188 0.0129885 0.0129885 2 2 3
0.0230676 0.012992 0.012992 2 2 3
0.0230165 0.0129954 0.0129954 2 2 3
0.0229653 0.0129989 0.0129989 2 2 3
0.0229142 0.0130024 0.0130024 2 2 3
0.0228632 0.0130059 0.0130059 2 2 3
0.0228121 0.0130094 0.0130094 2 2 3
0.0227611 0.0130128 0.0130128 2 2 3
0.0227102 0.0130163 0.0130163 2 2 3
0.0226592 0.0130198 0.0130198 2 2 3
0.0226083 0.0130233 0.0130233 2 2 3
0.0225575 0.0130267 0.0130267 2 2 3
0.0225066 0.0130302 0.0130302 2 2 3
0.0224559 0.0130337 0.0130337 2 2 3
0.0224051 0.0130372 0.0130372 2 2 3
0.0223544 0.0130406 0.0130406 2 2 3
0.0223037 0.0130441 0.0130441 2 2 3
0.022253 0.0130476 0.0130476 2 2 3
0.0222024 0.0130511 0.0130511 2 2 3
0.0221518 0.0130545 0.0130545 2 2 3
0.0221013 0.013058 0.013058 2 2 3
0.0220508 0.0130615 0.0130615 2 2 3
0.0220003 0.013065 0.013065 2 2 3
0.0219498 0.0130684 0.0130684 2 2 3
0.0218994 0.0130719 0.0130719 2 2 3
0.021849 0.0130754 0.0130754 2 2 3
0.0217987 0.0130788 0.0130788 2 2 3
0.0217484 0.0130823 0.0130823 2 2 3
0.0216981 0.0130858 0.0130858 2 2 3
0.0216479 0.0130893 0.0130893 2 2 3
0.0215976 0.0130927 0.0130927 2 2 3
0.0215475 0.0130962 0.0130962 2 2 3
0.0214973 0.0130997 0.0130997 2 2 3
0.0214472 0.0131031 0.0131031 2 2 3
0.0213971 0.0131066 0.0131066 2 2 3
0.0213471 0.0131101 0.0131101 2 2 3
0.0212971 0.0131135 0.0131135 2 2 3
0.0212471 0.013117 0.013117 2 2 3
0.0211972 0.0131205 0.0131205 2 2 3
0.0211473 0.0131239 0.0131239 2 2 3
0.0210974 0.0131274 0.0131274 2 2 3
0.0210475 0.0131309 0.0131309 2 2 3
0.0209977 0.0131343 0.0131343 2 2 3
0.020948 0.0131378 0.0131378 2 2 3
0.0208982 0.0131413 0.0131413 2 2 3
0.0208485 0.0131448 0.0131448 2 2 3
0.0207989 0.0131482 0.0131482 2 2 3
0.0207492 0.0131517 0.0131517 2 2 3
0.0206996 0.0131551 0.0131551 2 2 3
0.02065 0.0131586 0.0131586 2 2 3
0.0206005 0.0131621 0.0131621 2 2 3
0.020551 0.0131655 0.0131655 2 2 3
0.0205015 0.013169 0.013169 2 2 3
0.0204521 0.0131725 0.0131725 2 2 3
0.0204027 0.0131759 0.0131759 2 2 3
0.0203533 0.0131794 0.0131794 2 2 3
0.020304 0.0131829 0.0131829 2 2 3
0.0202546 0.0131863 0.0131863 2 2 3
0.0202054 0.0131898 0.0131898 2 2 3
0.0201561 0.0131933 0.0131933 2 2 3
0.0201069 0.0131967 0.0131967 2 2 3
0.0200577 0.0132002 0.0132002 2 2 3
0.0200086 0.0132036 0.0132036 2 2 3
0.0199595 0.0132071 0.0132071 2 2 3
0.0199104 0.0132106 0.0132106 2 2 3
0.0198614 0.013214 0.013214 2 2 3
0.0198124 0.0132175 0.0132175 2 2 3
0.0197634 0.013221 0.013221 2 2 3
0.0197144 0.0132244 0.0132244 2 2 3
0.0196655 0.0132279 0.0132279 2 2 3
0.0196166 0.0132313 0.0132313 2 2 3
0.0195678 0.0132348 0.0132348 2 2 3
0.019519 0.0132383 0.0132383 2 2 3
0.0194702 0.0132417 0.0132417 2 2 3
0.0194214 0.0132452 0.0132452 2 2 3
0.0193727 0.0132486 0.0132486 2 2 3
0.019324 0.0132521 0.0132521 2 2 3
0.0192754 0.0132555 0.0132555 2 2 3
0.0192268 0.013259 0.013259 2 2 3
0.0191782 0.0132625 0.0132625 2 2 3
0.0191296 0.0132659 0.0132659 2 2 3
0.0190811 0.0132694 0.0132694 2 2 3
0.0190326 0.0132728 0.0132728 2 2 3
0.0189841 0.0132763 0.0132763 2 2 3
0.0189357 0.0132797 0.0132797 2 2 3
0.0188873 0.0132832 0.0132832 2 2 3
0.0188389 0.0132867 0.0132867 2 2 3
0.0187906 0.0132901 0.0132901 2 2 3
0.0187423 0.0132936 0.0132936 2 2 3
0.018694 0.013297 0.013297 2 2 3
0.0186458 0.0133005 0.0133005 2 2 3
0.0185976 0.0133039 0.0133039 2 2 3
0.0185494 0.0133074 0.0133074 2 2 3
0.0185013 0.0133108 0.0133108 2 2 3
0.0184532 0.0133143 0.0133143 2 2 3
0.0184051 0.0133178 0.0133178 2 2 3
0.0183571 0.0133212 0.0133212 2 2 3
0.018309 0.0133247 0.0133247 2 2 3
0.0182611 0.0133281 0.0133281 2 2 3
0.0182131 0.0133316 0.0133316 2 2 3
0.0181652 0.013335 0.013335 2 2 3
0.0181173 0.0133385 0.0133385 2 2 3
0.0180695 0.0133419 0.0133419 2 2 3
0.0180216 0.0133454 0.0133454 2 2 3
0.0179738 0.0133488 0.0133488 2 2 3
0.0179261 0.0133523 0.0133523 2 2 3
0.0178784 0.0133557 0.0133557 2 2 3
0.0178307 0.0133592 0.0133592 2 2 3
0.017783 0.0133626 0.0133626 2 2 3
0.0177354 0.0133661 0.0133661 2 2 3
0.0176878 0.0133695 0.0133695 2 2 3
0.0176402 0.013373 0.013373 2 2 3
0.0175926 0.0133764 0.0133764 2 2 3
0.0175451 0.0133799 0.0133799 2 2 3
0.0174977 0.0133833 0.0133833 2 2 3
0.0174502 0.0133868 0.0133868 2 2 3
0.0174028 0.0133902 0.0133902 2 2 3
0.0173554 0.0133937 0.0133937 2 2 3
0.0173081 0.0133971 0.0133971 2 2 3
0.0172607 0.0134006 0.0134006 2 2 3
0.0172135 0.013404 0.013404 2 2 3
0.0171662 0.0134075 0.0134075 2 2 3
0.017119 0.0134109 0.0134109 2 2 3
0.0170718 0.0134144 0.0134144 2 2 3
0.0170246 0.0134178 0.0134178 2 2 3
0.0169775 0.0134212 0.0134212 2 2 3
0.0169304 0.0134247 0.0134247 2 2 3
0.0168833 0.0134281 0.0134281 2 2 3
0.0168362 0.0134316 0.0134316 2 2 3
0.0167892 0.013435 0.013435 2 2 3
0.0167423 0.0134385 0.0134385 2 2 3
0.0166953 0.0134419 0.0134419 2 2 3
0.0166484 0.0134454 0.0134454 2 2 3
0.0166015 0.0134488 0.0134488 2 2 3
0.0165546 0.0134523 0.0134523 2 2 3
0.0165078 0.0134557 0.0134557 2 2 3
0.016461 0.0134591 0.0134591 2 2 3
0.0164143 0.0134626 0.0134626 2 2 3
0.0163675 0.013466 0.013466 2 2 3
0.0163208 0.0134695 0.0134695 2 2 3
0.0162741 0.0134729 0.0134729 2 2 3
0.0162275 0.0134764 0.0134764 2 2 3
0.0161809 0.0134798 0.0134798 2 2 3
0.0161343 0.0134832 0.0134832 2 2 3
0.0160877 0.0134867 0.0134867 2 2 3
0.0160412 0.0134901 0.0134901 2 2 3
0.0159947 0.0134936 0.0134936 2 2 3
0.0159483 0.013497 0.013497 2 2 3
0.0159018 0.0135004 0.0135004 2 2 3
0.0158554 0.0135039 0.0135039 2 2 3
0.0158091 0.0135073 0.0135073 2 2 3
0.0157627 0.0135108 0.0135108 2 2 3
0.0157164 0.0135142 0.0135142 2 2 3
0.0156701 0.0135176 0.0135176 2 2 3
0.0156239 0.0135211 0.0135211 2 2 3
0.0155777 0.0135245 0.0135245 2 2 3
0.0155315 0.013528 0.013528 2 2 3
0.0154853 0.0135314 0.0135314 2 2 3
0.0154392 0.0135348 0.0135348 2 2 3
0.0153931 0.0135383 0.0135383 2 2 3
0.015347 0.0135417 0.0135417 2 2 3
0.015301 0.0135451 0.0135451 2 2 3
0.015255 0.0135486 0.0135486 2 2 3
0.015209 0.013552 0.013552 2 2 3
0.015163 0.0135554 0.0135554 2 2 3
0.0151171 0.0135589 0.0135589 2 2 3
0.0150712 0.0135623 0.0135623 2 2 3
0.0150254 0.0135658 0.0135658 2 2 3
0.0149795 0.0135692 0.0135692 2 2 3
0.0149337 0.0135726 0.0135726 2 2 3
0.0148879 0.0135761 0.0135761 2 2 3
0.0148422 0.0135795 0.0135795 2 2 3
0.0147965 0.0135829 0.0135829 2 2 3
0.0147508 0.0135864 0.0135864 2 2 3
0.0147052 0.0135898 0.0135898 2 2 3
0.0146595 0.0135932 0.0135932 2 2 3
0.0146139 0.0135967 0.0135967 2 2 3
0.0145684 0.0136001 0.0136001 2 2 3
0.0145228 0.0136035 0.0136035 2 2 3
0.0144773 0.013607 0.013607 2 2 3
0.0144318 0.0136104 0.0136104 2 2 3
0.0143864 0.0136138 0.0136138 2 2 3
0.014341 0.0136173 0.0136173 2 2 3
0.0142956 0.0136207 0.0136207 2 2 3
0.0142502 0.0136241 0.0136241 2 2 3
0.0142049 0.0136276 0.0136276 2 2 3
0.0141596 0.013631 0.013631 2 2 3
0.0141143 0.0136344 0.0136344 2 2 3
0.0140691 0.0136378 0.0136378 2 2 3
0.0140239 0.0136413 0.0136413 2 2 3
0.0139787 0.0136447 0.0136447 2 2 3
0.0139335 0.0136481 0.0136481 2 2 3
0.0138884 0.0136516 0.0136516 2 2 3
0.0138433 0.013655 0.013655 2 2 3
0.0137982 0.0136584 0.0136584 2 2 3
0.0137532 0.0136618 0.0136618 2 2 3
0.0137082 0.0136653 0.0136653 2 2 3
0.0136632 0.0136687 0.0136687 2 2 3
0.0136183 0.0136721 0.0136721 2 2 3
0.0135733 0.0136756 0.0136756 2 2 3
0.0135284 0.013679 0.013679 2 2 3
0.0134836 0.0136824 0.0136824 2 2 3
0.0134387 0.0136858 0.0136858 2 2 3
0.0133939 0.0136893 0.0136893 2 2 3
0.0133491 0.0136927 0.0136927 2 2 3
0.0133044 0.0136961 0.0136961 2 2 3
0.0132597 0.0136995 0.0136995 2 2 3
0.013215 0.013703 0.013703 2 2 3
0.0131703 0.0137064 0.0137064 2 2 3
0.0131257 0.0137098 0.0137098 2 2 3
0.0130811 0.0137132 0.0137132 2 2 3
0.0130365 0.0137167 0.0137167 2 2 3
0.0129919 0.0137201 0.0137201 2 2 3
0.0129474 0.0137235 0.0137235 2 2 3
0.0129029 0.0137269 0.0137269 2 2 3
0.0128585 0.0137304 0.0137304 2 2 3
0.012814 0.0137338 0.0137338 2 2 3
0.0127696 0.0137372 0.0137372 2 2 3
0.0127252 0.0137406 0.0137406 2 2 3
0.0126809 0.0137441 0.0137441 2 2 3
0.0126366 0.0137475 0.0137475 2 2 3
0.0125923 0.0137509 0.0137509 2 2 3
0.012548 0.0137543 0.0137543 2 2 3
0.0125038 0.0137577 0.0137577 2 2 3
0.0124595 0.0137612 0.0137612 2 2 3
0.0124154 0.0137646 0.0137646 2 2 3
0.0123712 0.013768 0.013768 2 2 3
0.0123271 0.0137714 0.0137714 2 2 3
0.012283 0.0137748 0.0137748 2 2 3
0.0122389 0.0137783 0.0137783 2 2 3
0.0121949 0.0137817 0.0137817 2 2 3
0.0121509 0.0137851 0.0137851 2 2 3
0.0121069 0.0137885 0.0137885 2 2 3
0.0120629 0.0137919 0.0137919 2 2 3
0.012019 0.0137954 0.0137954 2 2 3
0.0119751 0.0137988 0.0137988 2 2 3
0.0119312 0.0138022 0.0138022 2 2 3
0.0118874 0.0138056 0.0138056 2 2 3
0.0118435 0.013809 0.013809 2 2 3
0.0117998 0.0138125 0.0138125 2 2 3
0.011756 0.0138159 0.0138159 2 2 3
0.0117123 0.0138193 0.0138193 2 2 3
0.0116686 0.0138227 0.0138227 2 2 3
0.0116249 0.0138261 0.0138261 2 2 3
0.0115812 0.0138295 0.0138295 2 2 3
0.0115376 0.013833 0.013833 2 2 3
0.011494 0.0138364 0.0138364 2 2 3
0.0114504 0.0138398 0.0138398 2 2 3
0.0114069 0.0138432 0.0138432 2 2 3
0.0113634 0.0138466 0.0138466 2 2 3
0.0113199 0.01385 0.01385 2 2 3
0.0112764 0.0138534 0.0138534 2 2 3
0.011233 0.0138569 0.0138569 2 2 3
0.0111896 0.0138603 0.0138603 2 2 3
0.0111462 0.0138637 0.0138637 2 2 3
0.0111029 0.0138671 0.0138671 2 2 3
0.0110596 0.0138705 0.0138705 2 2 3
0.0110163 0.0138739 0.0138739 2 2 3
0.010973 0.0138773 0.0138773 2 2 3
0.0109298 0.0138808 0.0138808 2 2 3
0.0108866 0.0138842 0.0138842 2 2 3
0.0108434 0.0138876 0.0138876 2 2 3
0.0108002 0.013891 0.013891 2 2 3
0.0107571 0.0138944 0.0138944 2 2 3
0.010714 0.0138978 0.0138978 2 2 3
0.0106709 0.0139012 0.0139012 2 2 3
0.0106279 0.0139046 0.0139046 2 2 3
0.0105848 0.013908 0.013908 2 2 3
0.0105418 0.0139115 0.0139115 2 2 3
0.0104989 0.0139149 0.0139149 2 2 3
0.0104559 0.0139183 0.0139183 2 2 3
0.010413 0.0139217 0.0139217 2 2 3
0.0103701 0.0139251 0.0139251 2 2 3
0.0103273 0.0139285 0.0139285 2 2 3
0.0102845 0.0139319 0.0139319 2 2 3
0.0102417 0.0139353 0.0139353 2 2 3
0.0101989 0.0139387 0.0139387 2 2 3
0.0101561 0.0139421 0.0139421 2 2 3
0.0101134 0.0139455 0.0139455 2 2 3
0.0100707 0.013949 0.013949 2 2 3
0.010028 0.0139524 0.0139524 2 2 3
0.00998539 0.0139558 0.0139558 2 2 3
0.00994278 0.0139592 0.0139592 2 2 3
0.00990019 0.0139626 0.0139626 2 2 3
0.00985763 0.013966 0.013966 2 2 3
0.00981509 0.0139694 0.0139694 2 2 3
0.00977258 0.0139728 0.0139728 2 2 3
0.0097301 0.0139762 0.0139762 2 2 3
0.00968764 0.0139796 0.0139796 2 2 3
0.00964521 0.013983 0.013983 2 2 3
0.00960281 0.0139864 0.0139864 2 2 3
0.00956043 0.0139898 0.0139898 2 2 3
0.00951809 0.0139932 0.0139932 2 2 3
0.00947576 0.0139966 0.0139966 2 2 3
0.00943347 0.014 0.014 2 2 3
0.0093912 0.0140034 0.0140034 2 2 3
0.00934895 0.0140068 0.0140068 2 2 3
0.00930674 0.0140103 0.0140103 2 2 3
0.00926454 0.0140137 0.0140137 2 2 3
0.00922238 0.0140171 0.0140171 2 2 3
0.00918024 0.0140205 0.0140205 2 2 3
0.00913813 0.0140239 0.0140239 2 2 3
0.00909605 0.0140273 0.0140273 2 2 3
0.00905399 0.0140307 0.0140307 2 2 3
0.00901195 0.0140341 0.0140341 2 2 3
0.00896995 0.0140375 0.0140375 2 2 3
0.00892797 0.0140409 0.0140409 2 2 3
0.00888601 0.0140443 0.0140443 2 2 3
0.00884409 0.0140477 0.0140477 2 2 3
0.00880218 0.0140511 0.0140511 2 2 3
0.00876031 0.0140545 0.0140545 2 2 3
0.00871846 0.0140579 0.0140579 2 2 3
0.00867664 0.0140613 0.0140613 2 2 3
0.00863484 0.0140647 0.0140647 2 2 3
0.00859307 0.0140681 0.0140681 2 2 3
0.00855132 0.0140715 0.0140715 2 2 3
0.0085096 0.0140749 0.0140749 2 2 3
0.00846791 0.0140783 0.0140783 2 2 3
0.00842624 0.0140817 0.0140817 2 2 3
0.0083846 0.0140851 0.0140851 2 2 3
0.00834299 0.0140885 0.0140885 2 2 3
0.0083014 0.0140919 0.0140919 2 2 3
0.00825983 0.0140953 0.0140953 2 2 3
0.00821829 0.0140987 0.0140987 2 2 3
0.00817678 0.014102 0.014102 2 2 3
0.0081353 0.0141054 0.0141054 2 2 3
0.00809383 0.0141088 0.0141088 2 2 3
0.0080524 0.0141122 0.0141122 2 2 3
0.00801099 0.0141156 0.0141156 2 2 3
0.00796961 0.014119 0.014119 2 2 3
0.00792825 0.0141224 0.0141224 2 2 3
0.00788692 0.0141258 0.0141258 2 2 3
0.00784561 0.0141292 0.0141292 2 2 3
0.00780433 0.0141326 0.0141326 2 2 3
0.00776308 0.014136 0.014136 2 2 3
0.00772185 0.0141394 0.0141394 2 2 3
0.00768064 0.0141428 0.0141428 2 2 3
0.00763946 0.0141462 0.0141462 2 2 3
0.00759831 0.0141496 0.0141496 2 2 3
0.00755718 0.014153 0.014153 2 2 3
0.00751608 0.0141564 0.0141564 2 2 3
0.007475 0.0141598 0.0141598 2 2 3
0.00743395 0.0141631 0.0141631 2 2 3
0.00739293 0.0141665 0.0141665 2 2 3
0.00735192 0.0141699 0.0141699 2 2 3
0.00731095 0.0141733 0.0141733 2 2 3
0.00727 0.0141767 0.0141767 2 2 3
0.00722907 0.0141801 0.0141801 2 2 3
0.00718818 0.0141835 0.0141835 2 2 3
0.0071473 0.0141869 0.0141869 2 2 3
0.00710645 0.0141903 0.0141903 2 2 3
0.00706563 0.0141937 0.0141937 2 2 3
0.00702483 0.0141971 0.0141971 2 2 3
0.00698406 0.0142004 0.0142004 2 2 3
0.00694331 0.0142038 0.0142038 2 2 3
0.00690258 0.0142072 0.0142072 2 2 3
0.00686189 0.0142106 0.0142106 2 2 3
0.00682121 0.014214 0.014214 2 2 3
0.00678057 0.0142174 0.0142174 2 2 3
0.00673994 0.0142208 0.0142208 2 2 3
0.00669934 0.0142242 0.0142242 2 2 3
0.00665877 0.0142276 0.0142276 2 2 3
0.00661822 0.0142309 0.0142309 2 2 3
0.0065777 0.0142343 0.0142343 2 2 3
0.0065372 0.0142377 0.0142377 2 2 3
0.00649673 0.0142411 0.0142411 2 2 3
0.00645628 0.0142445 0.0142445 2 2 3
0.00641586 0.0142479 0.0142479 2 2 3
0.00637546 0.0142513 0.0142513 2 2 3
0.00633509 0.0142547 0.0142547 2 2 3
0.00629474 0.014258 0.014258 2 2 3
0.00625441 0.0142614 0.0142614 2 2 3
0.00621411 0.0142648 0.0142648 2 2 3
0.0820526 0.01 0.01 2 2 3
0.0821521 0.00999619 0.00999619 2 2 3
0.0822517 0.00999238 0.00999238 2 2 3
0.0823514 0.00998857 0.00998857 2 2 3
0.0824512 0.00998476 0.00998476 2 2 3
0.0825511 0.00998095 0.00998095 2 2 3
0.0826512 0.00997714 0.00997714 2 2 3
0.0827513 0.00997332 0.00997332 2 2 3
0.0828515 0.00996951 0.00996951 2 2 3
0.0829518 0.00996569 0.00996569 2 2 3
0.0830522 0.00996188 0.00996188 2 2 3
0.0831527 0.00995806 0.00995806 2 2 3
0.0832534 0.00995424 0.00995424 2 2 3
0.0833541 0.00995042 0.00995042 2 2 3
0.0834549 0.0099466 0.0099466 2 2 3
0.0835558 0.00994278 0.00994278 2 2 3
0.0836568 0.00993896 0.00993896 2 2 3
0.0837579 0.00993514 0.00993514 2 2 3
0.0838591 0.00993132 0.00993132 2 2 3
0.0839604 0.0099275 0.0099275 2 2 3
0.0840619 0.00992367 0.00992367 2 2 3
0.0841634 0.00991985 0.00991985 2 2 3
0.084265 0.00991602 0.00991602 2 2 3
0.0843667 0.00991219 0.00991219 2 2 3
0.0844685 0.00990837 0.00990837 2 2 3
0.0845705 0.00990454 0.00990454 2 2 3
0.0846725 0.00990071 0.00990071 2 2 3
0.0847746 0.00989688 0.00989688 2 2 3
0.0848768 0.00989305 0.00989305 2 2 3
0.0849792 0.00988922 0.00988922 2 2 3
0.0850816 0.00988538 0.00988538 2 2 3
0.0851841 0.00988155 0.00988155 2 2 3
0.0852868 0.00987772 0.00987772 2 2 3
0.0853895 0.00987388 0.00987388 2 2 3
0.0854924 0.00987005 0.00987005 2 2 3
0.0855953 0.00986621 0.00986621 2 2 3
0.0856984 0.00986237 0.00986237 2 2 3
0.0858015 0.00985853 0.00985853 2 2 3
0.0859048 0.00985469 0.00985469 2 2 3
0.0860082 0.00985085 0.00985085 2 2 3
0.0861116 0.00984701 0.00984701 2 2 3
0.0862152 0.00984317 0.00984317 2 2 3
0.0863189 0.00983933 0.00983933 2 2 3
0.0864227 0.00983548 0.00983548 2 2 3
0.0865266 0.00983164 0.00983164 2 2 3
0.0866306 0.00982779 0.00982779 2 2 3
0.0867347 0.00982395 0.00982395 2 2 3
0.0868389 0.0098201 0.0098201 2 2 3
0.0869432 0.00981625 0.00981625 2 2 3
0.0870476 0.0098124 0.0098124 2 2 3
0.0871521 0.00980855 0.00980855 2 2 3
0.0872568 0.0098047 0.0098047 2 2 3
0.0873615 0.00980085 0.00980085 2 2 3
0.0874664 0.00979699 0.00979699 2 2 3
0.0875713 0.00979314 0.00979314 2 2 3
0.0876764 0.00978929 0.00978929 2 2 3
0.0877815 0.00978543 0.00978543 2 2 3
0.0878868 0.00978157 0.00978157 2 2 3
0.0879922 0.00977772 0.00977772 2 2 3
0.0880977 0.00977386 0.00977386 2 2 3
0.0882033 0.00977 0.00977 2 2 3
0.088309 0.00976614 0.00976614 2 2 3
0.0884148 0.00976228 0.00976228 2 2 3
0.0885207 0.00975842 0.00975842 2 2 3
0.0886268 0.00975455 0.00975455 2 2 3
0.0887329 0.00975069 0.00975069 2 2 3
0.0888392 0.00974682 0.00974682 2 2 3
0.0889455 0.00974296 0.00974296 2 2 3
0.089052 0.00973909 0.00973909 2 2 3
0.0891586 0.00973522 0.00973522 2 2 3
0.0892653 0.00973135 0.00973135 2 2 3
0.0893721 0.00972748 0.00972748 2 2 3
0.089479 0.00972361 0.00972361 2 2 3
0.089586 0.00971974 0.00971974 2 2 3
0.0896932 0.00971587 0.00971587 2 2 3
0.0898004 0.009712 0.009712 2 2 3
0.0899078 0.00970812 0.00970812 2 2 3
0.0900152 0.00970425 0.00970425 2 2 3
0.0901228 0.00970037 0.00970037 2 2 3
0.0902305 0.00969649 0.00969649 2 2 3
0.0903383 0.00969261 0.00969261 2 2 3
0.0904462 0.00968873 0.00968873 2 2 3
0.0905543 0.00968485 0.00968485 2 2 3
0.0906624 0.00968097 0.00968097 2 2 3
0.0907707 0.00967709 0.00967709 2 2 3
0.0908791 0.00967321 0.00967321 2 2 3
0.0909875 0.00966932 0.00966932 2 2 3
0.0910961 0.00966544 0.00966544 2 2 3
0.0912048 0.00966155 0.00966155 2 2 3
0.0913137 0.00965766 0.00965766 2 2 3
0.0914226 0.00965377 0.00965377 2 2 3
0.0915317 0.00964988 0.00964988 2 2 3
0.0916408 0.00964599 0.00964599 2 2 3
0.0917501 0.0096421 0.0096421 2 2 3
0.0918595 0.00963821 0.00963821 2 2 3
0.091969 0.00963431 0.00963431 2 2 3
0.0920787 0.00963042 0.00963042 2 2 3
0.0921884 0.00962652 0.00962652 2 2 3
0.0922983 0.00962263 0.00962263 2 2 3
0.0924083 0.00961873 0.00961873 2 2 3
0.0925184 0.00961483 0.00961483 2 2 3
0.0926286 0.00961093 0.00961093 2 2 3
0.0927389 0.00960703 0.00960703 2 2 3
0.0928493 0.00960313 0.00960313 2 2 3
0.0929599 0.00959922 0.00959922 2 2 3
0.0930706 0.00959532 0.00959532 2 2 3
0.0931814 0.00959141 0.00959141 2 2 3
0.0932923 0.00958751 0.00958751 2 2 3
0.0934033 0.0095836 0.0095836 2 2 3
0.0935145 0.00957969 0.00957969 2 2 3
0.0936258 0.00957578 0.00957578 2 2 3
0.0937372 0.00957187 0.00957187 2 2 3
0.0938487 0.00956796 0.00956796 2 2 3
0.0939603 0.00956404 0.00956404 2 2 3
0.094072 0.00956013 0.00956013 2 2 3
0.0941839 0.00955621 0.00955621 2 2 3
