0.08 0.373033 0.373033 2 1 0
0.0788169 0.37285 0.37285 1 1 0
0.077633 0.372667 0.372667 1 1 0
0.0764481 0.372484 0.372484 1 1 0
0.0752624 0.372301 0.372301 1 1 0
0.0740757 0.372118 0.372118 1 1 0
0.0728882 0.371935 0.371935 1 1 0
0.0716998 0.371752 0.371752 1 1 0
0.0715671 0.371731 0.371731 2 1 0
0.0703777 0.371548 0.371548 2 1 0
0.0691874 0.371364 0.371364 2 1 0
0.0679962 0.371181 0.371181 2 1 0
0.0668041 0.370997 0.370997 2 1 0
0.0656111 0.370813 0.370813 2 1 0
0.0644173 0.370629 0.370629 2 1 0
0.0632225 0.370445 0.370445 2 1 0
0.0620268 0.370261 0.370261 2 1 0
0.0608303 0.370077 0.370077 2 1 0
0.0596328 0.369893 0.369893 2 1 0
0.0584345 0.369708 0.369708 2 1 0
0.0572353 0.369524 0.369524 2 1 0
0.0560352 0.369339 0.369339 2 1 0
0.0548342 0.369155 0.369155 2 1 0
0.0536323 0.36897 0.36897 2 1 0
0.0524295 0.368785 0.368785 2 1 0
0.0512258 0.3686 0.3686 2 1 0
0.0500213 0.368415 0.368415 2 1 0
0.0488159 0.36823 0.36823 2 1 0
0.0476095 0.368045 0.368045 2 1 0
0.0464023 0.367859 0.367859 2 1 0
0.0451942 0.367674 0.367674 2 1 0
0.0439852 0.367489 0.367489 2 1 0
0.0427754 0.367303 0.367303 2 1 0
0.0415646 0.367117 0.367117 2 1 0
0.040353 0.366931 0.366931 2 1 0
0.0391405 0.366745 0.366745 2 1 0
0.0379271 0.366559 0.366559 2 1 0
0.0367128 0.366373 0.366373 2 1 0
0.0354976 0.366187 0.366187 2 1 0
0.0342816 0.366001 0.366001 2 1 0
0.0330646 0.365814 0.365814 2 1 0
0.0318468 0.365628 0.365628 2 1 0
0.0306281 0.365441 0.365441 2 1 0
0.0294086 0.365254 0.365254 2 1 0
0.0281881 0.365068 0.365068 2 1 0
0.0269668 0.364881 0.364881 2 1 0
0.0257446 0.364694 0.364694 2 1 0
0.0245215 0.364507 0.364507 2 1 0
0.0232975 0.364319 0.364319 2 1 0
0.0220727 0.364132 0.364132 2 1 0
0.020847 0.363945 0.363945 2 1 0
0.0196204 0.363757 0.363757 2 1 0
0.0183929 0.36357 0.36357 2 1 0
0.0171645 0.363382 0.363382 2 1 0
0.0159353 0.363194 0.363194 2 1 0
0.0147052 0.363006 0.363006 2 1 0
0.0134742 0.362818 0.362818 2 1 0
0.0122424 0.36263 0.36263 2 1 0
0.0110097 0.362442 0.362442 2 1 0
0.00977607 0.362253 0.362253 2 1 0
0.00854161 0.362065 0.362065 2 1 0
0.00730627 0.361877 0.361877 2 1 0
0.00607007 0.361688 0.361688 2 1 0
0.00483299 0.361499 0.361499 2 1 0
0.00359505 0.36131 0.36131 2 1 0
0.00235624 0.361121 0.361121 2 1 0
0.00111655 0.360932 0.360932 2 1 0
-0.000123994 0.360743 0.360743 2 1 0
0.0715672 0.371731 0.371731 4 2 0
0.0715638 0.37593 0.367542 3 2 0
0.0715628 0.376522 0.366953 3 2 0
0.0715337 0.384943 0.358615 3 2 0
0.0714749 0.393414 0.350309 3 2 0
0.0713818 0.401921 0.342047 3 2 0
0.0712472 0.410447 0.33387 3 2 0
0.071062 0.419001 0.325736 3 2 0
0.0708151 0.427547 0.317635 3 2 0
0.0704942 0.436063 0.309701 3 2 0
0.0700872 0.444482 0.301841 3 2 0
0.0695843 0.452722 0.294198 3 2 0
0.0689812 0.460727 0.286919 3 2 0
0.0682787 0.468332 0.280012 3 2 0
0.067486 0.475474 0.273515 3 2 0
0.0666167 0.48227 0.267441 3 2 0
0.0656855 0.488434 0.26193 3 2 0
0.0647064 0.494093 0.256881 3 2 0
0.0636909 0.499304 0.25206 3 2 0
0.062648 0.504117 0.247784 3 2 0
0.0615845 0.508551 0.243845 3 2 0
0.0605055 0.512618 0.240164 3 2 0
0.0594147 0.516427 0.236767 3 2 0
0.0583148 0.519972 0.233602 3 2 0
0.0572079 0.523239 0.230723 3 2 0
0.0560956 0.526319 0.227939 3 2 0
0.054979 0.529212 0.225317 3 2 0
0.053859 0.531825 0.222881 3 2 0
0.0527362 0.534436 0.220546 3 2 0
0.0516112 0.536909 0.218328 3 2 0
0.0504843 0.539256 0.216227 3 2 0
0.0493559 0.541488 0.214207 3 2 0
0.0482262 0.543614 0.212277 3 2 0
0.0470954 0.545614 0.21041 3 2 0
0.0459636 0.547554 0.208639 3 2 0
0.0448309 0.549411 0.206938 3 2 0
0.0436975 0.551195 0.205285 3 2 0
0.0425634 0.552903 0.20371 3 2 0
0.0414285 0.554544 0.202191 3 2 0
0.0402931 0.556113 0.200625 3 2 0
0.0391571 0.557632 0.199205 3 2 0
0.0380205 0.559097 0.19783 3 2 0
0.0368833 0.560528 0.196486 3 2 0
0.0357456 0.561892 0.195193 3 2 0
0.0346073 0.563209 0.193938 3 2 0
0.0334685 0.56449 0.19282 3 2 0
0.0323291 0.565722 0.191629 3 2 0
0.0311892 0.566916 0.19047 3 2 0
0.0300488 0.567919 0.189274 3 2 0
0.0289078 0.569043 0.188179 3 2 0
0.0277662 0.570132 0.187111 3 2 0
0.0266241 0.571127 0.186103 3 2 0
0.0254813 0.572154 0.185095 3 2 0
0.024338 0.573153 0.184111 3 2 0
0.0231941 0.573995 0.183114 3 2 0
0.0220496 0.574939 0.182165 3 2 0
0.0209045 0.575858 0.181238 3 2 0
0.0197588 0.57669 0.180391 3 2 0
0.0186125 0.57756 0.179499 3 2 0
0.0174655 0.578408 0.178625 3 2 0
0.0163179 0.579231 0.177808 3 2 0
0.0151696 0.580027 0.176967 3 2 0
0.0140207 0.580805 0.176144 3 2 0
0.0128711 0.581646 0.175381 3 2 0
0.0117208 0.582387 0.174587 3 2 0
0.0105699 0.583111 0.173809 3 2 0
0.00941823 0.583899 0.173074 3 2 0
0.00826591 0.584591 0.172323 3 2 0
0.00711289 0.585267 0.171585 3 2 0
0.00595917 0.585965 0.170921 3 2 0
0.00480474 0.586613 0.170206 3 2 0
0.00364959 0.587246 0.169504 3 2 0
0.00249372 0.587941 0.168822 3 2 0
0.00133713 0.588548 0.168143 3 2 0
0.000179808 0.589142 0.167475 3 2 0
-0.000978249 0.58977 0.166856 3 2 0
0.08 0.373033 0.373033 2 1 0
0.0811822 0.373215 0.373215 1 1 0
0.0823635 0.373398 0.373398 1 1 0
0.0835438 0.37358 0.37358 1 1 0
0.0847233 0.373763 0.373763 1 1 0
0.0859019 0.373945 0.373945 1 1 0
0.0870796 0.374127 0.374127 1 1 0
0.0882564 0.374309 0.374309 1 1 0
0.0894323 0.374491 0.374491 1 1 0
0.0906073 0.374673 0.374673 1 1 0
0.0917814 0.374855 0.374855 1 1 0
0.0929547 0.375037 0.375037 1 1 0
0.094127 0.375218 0.375218 1 1 0
0.0952984 0.3754 0.3754 1 1 0
0.0964689 0.375581 0.375581 1 1 0
0.0976386 0.375762 0.375762 1 1 0
0.0988073 0.375944 0.375944 1 1 0
0.0999751 0.376125 0.376125 1 1 0
0.101142 0.376306 0.376306 1 1 0
0.102308 0.376487 0.376487 1 1 0
0.103473 0.376668 0.376668 1 1 0
0.104637 0.376848 0.376848 1 1 0
0.105801 0.377029 0.377029 1 1 0
0.106963 0.37721 0.37721 1 1 0
0.108125 0.37739 0.37739 1 1 0
0.109285 0.377571 0.377571 1 1 0
0.110445 0.377751 0.377751 1 1 0
0.111604 0.377931 0.377931 1 1 0
0.112762 0.378111 0.378111 1 1 0
0.113919 0.378291 0.378291 1 1 0
0.115075 0.378471 0.378471 1 1 0
0.116231 0.378651 0.378651 1 1 0
0.117385 0.378831 0.378831 1 1 0
0.118538 0.379011 0.379011 1 1 0
0.119691 0.37919 0.37919 1 1 0
0.120843 0.37937 0.37937 1 1 0
0.121993 0.379549 0.379549 1 1 0
0.123143 0.379728 0.379728 1 1 0
0.124292 0.379908 0.379908 1 1 0
0.12544 0.380087 0.380087 1 1 0
0.126587 0.380266 0.380266 1 1 0
0.127734 0.380445 0.380445 1 1 0
0.128879 0.380624 0.380624 1 1 0
0.130023 0.380802 0.380802 1 1 0
0.131167 0.380981 0.380981 1 1 0
0.13231 0.38116 0.38116 1 1 0
0.133451 0.381338 0.381338 1 1 0
0.134592 0.381516 0.381516 1 1 0
0.135732 0.381695 0.381695 1 1 0
0.136871 0.381873 0.381873 1 1 0
0.138009 0.382051 0.382051 1 1 0
0.139147 0.382229 0.382229 1 1 0
0.140283 0.382407 0.382407 1 1 0
0.141419 0.382585 0.382585 1 1 0
0.142553 0.382763 0.382763 1 1 0
0.143687 0.382941 0.382941 1 1 0
0.14482 0.383118 0.383118 1 1 0
0.145951 0.383296 0.383296 1 1 0
0.147082 0.383473 0.383473 1 1 0
0.148212 0.38365 0.38365 1 1 0
0.149342 0.383828 0.383828 1 1 0
0.15047 0.384005 0.384005 1 1 0
0.151597 0.384182 0.384182 1 1 0
0.152724 0.384359 0.384359 1 1 0
0.153849 0.384536 0.384536 1 1 0
0.154974 0.384713 0.384713 1 1 0
0.156098 0.384889 0.384889 1 1 0
0.157221 0.385066 0.385066 1 1 0
0.158343 0.385243 0.385243 1 1 0
0.159464 0.385419 0.385419 1 1 0
0.160584 0.385596 0.385596 1 1 0
0.161703 0.385772 0.385772 1 1 0
0.162821 0.385948 0.385948 1 1 0
0.163939 0.386124 0.386124 1 1 0
0.165055 0.3863 0.3863 1 1 0
0.166171 0.386476 0.386476 1 1 0
0.167286 0.386652 0.386652 1 1 0
0.1684 0.386828 0.386828 1 1 0
0.169513 0.387003 0.387003 1 1 0
0.170625 0.387179 0.387179 1 1 0
0.171736 0.387355 0.387355 1 1 0
0.172846 0.38753 0.38753 1 1 0
0.173956 0.387705 0.387705 1 1 0
0.175064 0.387881 0.387881 1 1 0
0.176172 0.388056 0.388056 1 1 0
0.177279 0.388231 0.388231 1 1 0
0.178384 0.388406 0.388406 1 1 0
0.179489 0.388581 0.388581 1 1 0
0.180593 0.388756 0.388756 1 1 0
0.181696 0.38893 0.38893 1 1 0
0.182799 0.389105 0.389105 1 1 0
0.1839 0.38928 0.38928 1 1 0
0.185 0.389454 0.389454 1 1 0
0.1861 0.389629 0.389629 1 1 0
0.187198 0.389803 0.389803 1 1 0
0.188296 0.389977 0.389977 1 1 0
0.189393 0.390151 0.390151 1 1 0
0.190489 0.390325 0.390325 1 1 0
0.191584 0.390499 0.390499 1 1 0
0.192678 0.390673 0.390673 1 1 0
0.193771 0.390847 0.390847 1 1 0
0.194864 0.391021 0.391021 1 1 0
0.195955 0.391195 0.391195 1 1 0
0.197046 0.391368 0.391368 1 1 0
0.198136 0.391542 0.391542 1 1 0
0.199224 0.391715 0.391715 1 1 0
0.200312 0.391888 0.391888 1 1 0
0.201399 0.392062 0.392062 1 1 0
0.202485 0.392235 0.392235 1 1 0
0.203571 0.392408 0.392408 1 1 0
0.204655 0.392581 0.392581 1 1 0
0.205738 0.392754 0.392754 1 1 0
0.206821 0.392927 0.392927 1 1 0
0.207903 0.393099 0.393099 1 1 0
0.208983 0.393272 0.393272 1 1 0
0.210063 0.393444 0.393444 1 1 0
0.211142 0.393617 0.393617 1 1 0
0.21222 0.393789 0.393789 1 1 0
0.213298 0.393962 0.393962 1 1 0
0.214374 0.394134 0.394134 1 1 0
0.215449 0.394306 0.394306 1 1 0
0.216524 0.394478 0.394478 1 1 0
0.217597 0.39465 0.39465 1 1 0
0.21867 0.394822 0.394822 1 1 0
0.219742 0.394994 0.394994 1 1 0
0.220813 0.395166 0.395166 1 1 0
0.221883 0.395337 0.395337 1 1 0
0.222952 0.395509 0.395509 1 1 0
0.224021 0.395681 0.395681 1 1 0
0.225088 0.395852 0.395852 1 1 0
0.226155 0.396023 0.396023 1 1 0
0.22722 0.396195 0.396195 1 1 0
0.228285 0.396366 0.396366 1 1 0
0.229349 0.396537 0.396537 1 1 0
0.230412 0.396708 0.396708 1 1 0
0.231474 0.396879 0.396879 1 1 0
0.232535 0.39705 0.39705 1 1 0
0.233596 0.397221 0.397221 1 1 0
0.234655 0.397391 0.397391 1 1 0
0.235714 0.397562 0.397562 1 1 0
0.236771 0.397732 0.397732 1 1 0
0.237828 0.397903 0.397903 1 1 0
0.238884 0.398073 0.398073 1 1 0
0.239939 0.398244 0.398244 1 1 0
0.240993 0.398414 0.398414 1 1 0
0.242047 0.398584 0.398584 1 1 0
0.243099 0.398754 0.398754 1 1 0
0.244151 0.398924 0.398924 1 1 0
0.245201 0.399094 0.399094 1 1 0
0.246251 0.399264 0.399264 1 1 0
0.2473 0.399434 0.399434 1 1 0
0.248348 0.399603 0.399603 1 1 0
0.249395 0.399773 0.399773 1 1 0
0.250441 0.399942 0.399942 1 1 0
0.251487 0.400112 0.400112 1 1 0
0.252531 0.400281 0.400281 1 1 0
0.253575 0.40045 0.40045 1 1 0
0.254617 0.40062 0.40062 1 1 0
0.255659 0.400789 0.400789 1 1 0
0.2567 0.400958 0.400958 1 1 0
0.25774 0.401127 0.401127 1 1 0
0.25878 0.401296 0.401296 1 1 0
0.259818 0.401464 0.401464 1 1 0
0.260855 0.401633 0.401633 1 1 0
0.261892 0.401802 0.401802 1 1 0
0.262928 0.40197 0.40197 1 1 0
0.263963 0.402139 0.402139 1 1 0
0.264997 0.402307 0.402307 1 1 0
0.26603 0.402476 0.402476 1 1 0
0.267062 0.402644 0.402644 1 1 0
0.268093 0.402812 0.402812 1 1 0
0.269124 0.40298 0.40298 1 1 0
0.270153 0.403148 0.403148 1 1 0
0.271182 0.403316 0.403316 1 1 0
0.27221 0.403484 0.403484 1 1 0
0.273237 0.403652 0.403652 1 1 0
0.274263 0.40382 0.40382 1 1 0
0.275289 0.403987 0.403987 1 1 0
0.276313 0.404155 0.404155 1 1 0
0.277336 0.404322 0.404322 1 1 0
0.278359 0.40449 0.40449 1 1 0
0.279381 0.404657 0.404657 1 1 0
0.280402 0.404824 0.404824 1 1 0
0.281422 0.404992 0.404992 1 1 0
0.282441 0.405159 0.405159 1 1 0
0.28346 0.405326 0.405326 1 1 0
0.284477 0.405493 0.405493 1 1 0
0.285494 0.40566 0.40566 1 1 0
0.286509 0.405826 0.405826 1 1 0
0.287524 0.405993 0.405993 1 1 0
0.288538 0.40616 0.40616 1 1 0
0.289551 0.406326 0.406326 1 1 0
0.290564 0.406493 0.406493 1 1 0
0.291575 0.406659 0.406659 1 1 0
0.292586 0.406826 0.406826 1 1 0
0.293596 0.406992 0.406992 1 1 0
0.294604 0.407158 0.407158 1 1 0
0.295612 0.407324 0.407324 1 1 0
0.29662 0.40749 0.40749 1 1 0
0.297626 0.407656 0.407656 1 1 0
0.298631 0.407822 0.407822 1 1 0
0.299636 0.407988 0.407988 1 1 0
0.30064 0.408154 0.408154 1 1 0
0.301642 0.40832 0.40832 1 1 0
0.302644 0.408485 0.408485 1 1 0
0.303646 0.408651 0.408651 1 1 0
0.304646 0.408816 0.408816 1 1 0
0.305645 0.408982 0.408982 1 1 0
0.306644 0.409147 0.409147 1 1 0
0.307642 0.409312 0.409312 1 1 0
0.308639 0.409477 0.409477 1 1 0
0.309635 0.409643 0.409643 1 1 0
0.31063 0.409808 0.409808 1 1 0
0.311624 0.409973 0.409973 1 1 0
0.312618 0.410137 0.410137 1 1 0
0.31361 0.410302 0.410302 1 1 0
0.314602 0.410467 0.410467 1 1 0
0.315593 0.410632 0.410632 1 1 0
0.316583 0.410796 0.410796 1 1 0
0.317572 0.410961 0.410961 1 1 0
0.318561 0.411125 0.411125 1 1 0
0.319548 0.41129 0.41129 1 1 0
0.320535 0.411454 0.411454 1 1 0
0.321521 0.411618 0.411618 1 1 0
0.322506 0.411782 0.411782 1 1 0
0.32349 0.411946 0.411946 1 1 0
0.324473 0.41211 0.41211 1 1 0
0.325456 0.412274 0.412274 1 1 0
0.326437 0.412438 0.412438 1 1 0
0.327418 0.412602 0.412602 1 1 0
0.328398 0.412766 0.412766 1 1 0
0.329377 0.412929 0.412929 1 1 0
0.330356 0.413093 0.413093 1 1 0
0.331333 0.413256 0.413256 1 1 0
0.33231 0.41342 0.41342 1 1 0
0.333285 0.413583 0.413583 1 1 0
0.33426 0.413747 0.413747 1 1 0
0.335234 0.41391 0.41391 1 1 0
0.336208 0.414073 0.414073 1 1 0
0.33718 0.414236 0.414236 1 1 0
0.338152 0.414399 0.414399 1 1 0
0.339122 0.414562 0.414562 1 1 0
0.340092 0.414725 0.414725 1 1 0
0.341061 0.414888 0.414888 1 1 0
0.34203 0.41505 0.41505 1 1 0
0.342997 0.415213 0.415213 1 1 0
0.343964 0.415376 0.415376 1 1 0
0.344929 0.415538 0.415538 1 1 0
0.345894 0.4157 0.4157 1 1 0
0.346858 0.415863 0.415863 1 1 0
0.347822 0.416025 0.416025 1 1 0
0.348784 0.416187 0.416187 1 1 0
0.349746 0.41635 0.41635 1 1 0
0.350706 0.416512 0.416512 1 1 0
0.351666 0.416674 0.416674 1 1 0
0.352626 0.416836 0.416836 1 1 0
0.353584 0.416998 0.416998 1 1 0
0.354541 0.417159 0.417159 1 1 0
0.355498 0.417321 0.417321 1 1 0
0.356454 0.417483 0.417483 1 1 0
0.357409 0.417644 0.417644 1 1 0
0.358363 0.417806 0.417806 1 1 0
0.359316 0.417967 0.417967 1 1 0
0.360269 0.418129 0.418129 1 1 0
0.361221 0.41829 0.41829 1 1 0
0.362171 0.418451 0.418451 1 1 0
0.363122 0.418613 0.418613 1 1 0
0.364071 0.418774 0.418774 1 1 0
0.365019 0.418935 0.418935 1 1 0
0.365967 0.419096 0.419096 1 1 0
0.366914 0.419257 0.419257 1 1 0
0.36786 0.419417 0.419417 1 1 0
0.368805 0.419578 0.419578 1 1 0
0.369749 0.419739 0.419739 1 1 0
0.370693 0.4199 0.4199 1 1 0
0.371635 0.42006 0.42006 1 1 0
0.372577 0.420221 0.420221 1 1 0
0.373518 0.420381 0.420381 1 1 0
0.374459 0.420541 0.420541 1 1 0
0.375398 0.420702 0.420702 1 1 0
0.376337 0.420862 0.420862 1 1 0
0.377275 0.421022 0.421022 1 1 0
0.378212 0.421182 0.421182 1 1 0
0.379148 0.421342 0.421342 1 1 0
0.380084 0.421502 0.421502 1 1 0
0.381018 0.421662 0.421662 1 1 0
0.381952 0.421822 0.421822 1 1 0
0.382885 0.421982 0.421982 1 1 0
0.383817 0.422141 0.422141 1 1 0
0.384749 0.422301 0.422301 1 1 0
0.385679 0.422461 0.422461 1 1 0
0.386609 0.42262 0.42262 1 1 0
0.387538 0.42278 0.42278 1 1 0
0.388466 0.422939 0.422939 1 1 0
0.389394 0.423098 0.423098 1 1 0
0.39032 0.423257 0.423257 1 1 0
0.391246 0.423417 0.423417 1 1 0
0.392171 0.423576 0.423576 1 1 0
0.393095 0.423735 0.423735 1 1 0
0.394019 0.423894 0.423894 1 1 0
0.394941 0.424053 0.424053 1 1 0
0.395863 0.424211 0.424211 1 1 0
0.396784 0.42437 0.42437 1 1 0
0.397704 0.424529 0.424529 1 1 0
0.398624 0.424688 0.424688 1 1 0
0.399542 0.424846 0.424846 1 1 0
0.40046 0.425005 0.425005 1 1 0
0.401377 0.425163 0.425163 1 1 0
0.402294 0.425321 0.425321 1 1 0
0.403209 0.42548 0.42548 1 1 0
0.404124 0.425638 0.425638 1 1 0
0.405038 0.425796 0.425796 1 1 0
0.405951 0.425954 0.425954 1 1 0
0.406863 0.426112 0.426112 1 1 0
0.407775 0.42627 0.42627 1 1 0
0.408685 0.426428 0.426428 1 1 0
0.409595 0.426586 0.426586 1 1 0
0.410505 0.426744 0.426744 1 1 0
0.411413 0.426902 0.426902 1 1 0
0.412321 0.427059 0.427059 1 1 0
0.413227 0.427217 0.427217 1 1 0
0.414133 0.427374 0.427374 1 1 0
0.415039 0.427532 0.427532 1 1 0
0.415943 0.427689 0.427689 1 1 0
0.416847 0.427847 0.427847 1 1 0
0.41775 0.428004 0.428004 1 1 0
0.418652 0.428161 0.428161 1 1 0
0.419553 0.428318 0.428318 1 1 0
0.420454 0.428475 0.428475 1 1 0
0.421354 0.428632 0.428632 1 1 0
0.422253 0.428789 0.428789 1 1 0
0.423151 0.428946 0.428946 1 1 0
0.424049 0.429103 0.429103 1 1 0
0.424945 0.42926 0.42926 1 1 0
0.425841 0.429416 0.429416 1 1 0
0.426736 0.429573 0.429573 1 1 0
0.427631 0.42973 0.42973 1 1 0
0.428524 0.429886 0.429886 1 1 0
0.429417 0.430042 0.430042 1 1 0
0.430309 0.430199 0.430199 1 1 0
0.431201 0.430355 0.430355 1 1 0
0.432091 0.430511 0.430511 1 1 0
0.432981 0.430668 0.430668 1 1 0
0.43387 0.430824 0.430824 1 1 0
0.434758 0.43098 0.43098 1 1 0
0.435646 0.431136 0.431136 1 1 0
0.436533 0.431292 0.431292 1 1 0
0.437419 0.431448 0.431448 1 1 0
0.438304 0.431603 0.431603 1 1 0
0.439188 0.431759 0.431759 1 1 0
0.440072 0.431915 0.431915 1 1 0
0.440955 0.432071 0.432071 1 1 0
0.441837 0.432226 0.432226 1 1 0
0.442718 0.432382 0.432382 1 1 0
0.443599 0.432537 0.432537 1 1 0
0.444479 0.432692 0.432692 1 1 0
0.445358 0.432848 0.432848 1 1 0
0.446236 0.433003 0.433003 1 1 0
0.447114 0.433158 0.433158 1 1 0
0.447991 0.433313 0.433313 1 1 0
0.448867 0.433468 0.433468 1 1 0
0.449742 0.433623 0.433623 1 1 0
0.450617 0.433778 0.433778 1 1 0
0.451491 0.433933 0.433933 1 1 0
0.452364 0.434088 0.434088 1 1 0
0.453236 0.434243 0.434243 1 1 0
0.454108 0.434398 0.434398 1 1 0
0.454979 0.434552 0.434552 1 1 0
0.455849 0.434707 0.434707 1 1 0
0.456718 0.434861 0.434861 1 1 0
0.457587 0.435016 0.435016 1 1 0
0.458455 0.43517 0.43517 1 1 0
0.459322 0.435324 0.435324 1 1 0
0.460188 0.435479 0.435479 1 1 0
0.461054 0.435633 0.435633 1 1 0
0.461919 0.435787 0.435787 1 1 0
0.462783 0.435941 0.435941 1 1 0
0.463647 0.436095 0.436095 1 1 0
0.464509 0.436249 0.436249 1 1 0
0.465371 0.436403 0.436403 1 1 0
0.466232 0.436557 0.436557 1 1 0
0.467093 0.436711 0.436711 1 1 0
0.467953 0.436865 0.436865 1 1 0
0.468812 0.437018 0.437018 1 1 0
0.46967 0.437172 0.437172 1 1 0
0.470527 0.437325 0.437325 1 1 0
0.471384 0.437479 0.437479 1 1 0
0.47224 0.437632 0.437632 1 1 0
0.473096 0.437786 0.437786 1 1 0
0.47395 0.437939 0.437939 1 1 0
0.474804 0.438092 0.438092 1 1 0
0.475657 0.438246 0.438246 1 1 0
0.47651 0.438399 0.438399 1 1 0
0.477361 0.438552 0.438552 1 1 0
0.478212 0.438705 0.438705 1 1 0
0.479062 0.438858 0.438858 1 1 0
0.479912 0.439011 0.439011 1 1 0
0.480761 0.439163 0.439163 1 1 0
0.481609 0.439316 0.439316 1 1 0
0.482456 0.439469 0.439469 1 1 0
0.483303 0.439622 0.439622 1 1 0
0.484149 0.439774 0.439774 1 1 0
0.484994 0.439927 0.439927 1 1 0
0.485838 0.440079 0.440079 1 1 0
0.486682 0.440232 0.440232 1 1 0
0.487525 0.440384 0.440384 1 1 0
0.488367 0.440536 0.440536 1 1 0
0.489209 0.440689 0.440689 1 1 0
0.49005 0.440841 0.440841 1 1 0
0.49089 0.440993 0.440993 1 1 0
0.491729 0.441145 0.441145 1 1 0
0.492568 0.441297 0.441297 1 1 0
0.493406 0.441449 0.441449 1 1 0
0.494243 0.441601 0.441601 1 1 0
0.49508 0.441753 0.441753 1 1 0
0.495916 0.441905 0.441905 1 1 0
0.496751 0.442056 0.442056 1 1 0
0.497585 0.442208 0.442208 1 1 0
0.498419 0.44236 0.44236 1 1 0
0.499252 0.442511 0.442511 1 1 0
0.500084 0.442663 0.442663 1 1 0
0.500916 0.442814 0.442814 1 1 0
0.501747 0.442966 0.442966 1 1 0
0.502577 0.443117 0.443117 1 1 0
0.503406 0.443268 0.443268 1 1 0
0.504235 0.44342 0.44342 1 1 0
0.505063 0.443571 0.443571 1 1 0
0.505891 0.443722 0.443722 1 1 0
0.506717 0.443873 0.443873 1 1 0
0.507543 0.444024 0.444024 1 1 0
0.508369 0.444175 0.444175 1 1 0
0.509193 0.444326 0.444326 1 1 0
0.510017 0.444477 0.444477 1 1 0
0.51084 0.444627 0.444627 1 1 0
0.511663 0.444778 0.444778 1 1 0
0.512485 0.444929 0.444929 1 1 0
0.513306 0.445079 0.445079 1 1 0
0.514126 0.44523 0.44523 1 1 0
0.514946 0.44538 0.44538 1 1 0
0.515765 0.445531 0.445531 1 1 0
0.516583 0.445681 0.445681 1 1 0
0.517401 0.445832 0.445832 1 1 0
0.518218 0.445982 0.445982 1 1 0
0.519034 0.446132 0.446132 1 1 0
0.519849 0.446282 0.446282 1 1 0
0.520664 0.446432 0.446432 1 1 0
0.521479 0.446582 0.446582 1 1 0
0.522292 0.446732 0.446732 1 1 0
0.523105 0.446882 0.446882 1 1 0
0.523917 0.447032 0.447032 1 1 0
0.524728 0.447182 0.447182 1 1 0
0.525539 0.447332 0.447332 1 1 0
0.526349 0.447482 0.447482 1 1 0
0.527159 0.447631 0.447631 1 1 0
0.527967 0.447781 0.447781 1 1 0
0.528775 0.44793 0.44793 1 1 0
0.529583 0.44808 0.44808 1 1 0
0.530389 0.448229 0.448229 1 1 0
0.531195 0.448379 0.448379 1 1 0
0.532001 0.448528 0.448528 1 1 0
0.532805 0.448677 0.448677 1 1 0
0.533609 0.448827 0.448827 1 1 0
0.534413 0.448976 0.448976 1 1 0
0.535215 0.449125 0.449125 1 1 0
0.536017 0.449274 0.449274 1 1 0
0.536819 0.449423 0.449423 1 1 0
0.537619 0.449572 0.449572 1 1 0
0.538419 0.449721 0.449721 1 1 0
0.539218 0.44987 0.44987 1 1 0
0.540017 0.450018 0.450018 1 1 0
0.540815 0.450167 0.450167 1 1 0
0.541612 0.450316 0.450316 1 1 0
0.542409 0.450464 0.450464 1 1 0
0.543205 0.450613 0.450613 1 1 0
0.544 0.450762 0.450762 1 1 0
0.544795 0.45091 0.45091 1 1 0
0.545589 0.451058 0.451058 1 1 0
0.546382 0.451207 0.451207 1 1 0
0.547175 0.451355 0.451355 1 1 0
0.547967 0.451503 0.451503 1 1 0
0.548758 0.451652 0.451652 1 1 0
0.549548 0.4518 0.4518 1 1 0
0.550338 0.451948 0.451948 1 1 0
0.551128 0.452096 0.452096 1 1 0
0.551916 0.452244 0.452244 1 1 0
0.552704 0.452392 0.452392 1 1 0
0.553492 0.45254 0.45254 1 1 0
0.554278 0.452688 0.452688 1 1 0
0.555065 0.452835 0.452835 1 1 0
0.55585 0.452983 0.452983 1 1 0
0.556635 0.453131 0.453131 1 1 0
0.557419 0.453278 0.453278 1 1 0
0.558202 0.453426 0.453426 1 1 0
0.558985 0.453573 0.453573 1 1 0
0.559767 0.453721 0.453721 1 1 0
0.560549 0.453868 0.453868 1 1 0
0.561329 0.454016 0.454016 1 1 0
0.56211 0.454163 0.454163 1 1 0
0.562889 0.45431 0.45431 1 1 0
0.563668 0.454457 0.454457 1 1 0
0.564446 0.454605 0.454605 1 1 0
0.565224 0.454752 0.454752 1 1 0
0.566001 0.454899 0.454899 1 1 0
0.566777 0.455046 0.455046 1 1 0
0.567553 0.455193 0.455193 1 1 0
0.568328 0.45534 0.45534 1 1 0
0.569102 0.455486 0.455486 1 1 0
0.569876 0.455633 0.455633 1 1 0
0.570649 0.45578 0.45578 1 1 0
0.571422 0.455927 0.455927 1 1 0
0.572194 0.456073 0.456073 1 1 0
0.572965 0.45622 0.45622 1 1 0
0.573735 0.456367 0.456367 1 1 0
0.574505 0.456513 0.456513 1 1 0
0.575275 0.456659 0.456659 1 1 0
0.576043 0.456806 0.456806 1 1 0
0.576811 0.456952 0.456952 1 1 0
0.577579 0.457098 0.457098 1 1 0
0.578346 0.457245 0.457245 1 1 0
0.579112 0.457391 0.457391 1 1 0
0.579877 0.457537 0.457537 1 1 0
0.580642 0.457683 0.457683 1 1 0
0.581406 0.457829 0.457829 1 1 0
0.58217 0.457975 0.457975 1 1 0
0.582933 0.458121 0.458121 1 1 0
0.583696 0.458267 0.458267 1 1 0
0.584457 0.458413 0.458413 1 1 0
0.585218 0.458559 0.458559 1 1 0
0.585979 0.458704 0.458704 1 1 0
0.586739 0.45885 0.45885 1 1 0
0.587498 0.458996 0.458996 1 1 0
0.588257 0.459141 0.459141 1 1 0
0.589015 0.459287 0.459287 1 1 0
0.589772 0.459432 0.459432 1 1 0
0.590529 0.459578 0.459578 1 1 0
0.591285 0.459723 0.459723 1 1 0
0.592041 0.459868 0.459868 1 1 0
0.592796 0.460014 0.460014 1 1 0
0.59355 0.460159 0.460159 1 1 0
0.594304 0.460304 0.460304 1 1 0
0.595057 0.460449 0.460449 1 1 0
0.59581 0.460594 0.460594 1 1 0
0.596561 0.460739 0.460739 1 1 0
0.597313 0.460884 0.460884 1 1 0
0.598063 0.461029 0.461029 1 1 0
0.598813 0.461174 0.461174 1 1 0
0.599563 0.461319 0.461319 1 1 0
0.600312 0.461464 0.461464 1 1 0
0.60106 0.461608 0.461608 1 1 0
0.601808 0.461753 0.461753 1 1 0
0.602555 0.461898 0.461898 1 1 0
0.603301 0.462042 0.462042 1 1 0
0.604047 0.462187 0.462187 1 1 0
0.604792 0.462331 0.462331 1 1 0
0.605537 0.462476 0.462476 1 1 0
0.606281 0.46262 0.46262 1 1 0
0.607024 0.462765 0.462765 1 1 0
0.607767 0.462909 0.462909 1 1 0
0.608509 0.463053 0.463053 1 1 0
0.609251 0.463197 0.463197 1 1 0
0.609992 0.463342 0.463342 1 1 0
0.610732 0.463486 0.463486 1 1 0
0.611472 0.46363 0.46363 1 1 0
0.612211 0.463774 0.463774 1 1 0
0.61295 0.463918 0.463918 1 1 0
0.613688 0.464062 0.464062 1 1 0
0.614425 0.464206 0.464206 1 1 0
0.615162 0.464349 0.464349 1 1 0
0.615898 0.464493 0.464493 1 1 0
0.616634 0.464637 0.464637 1 1 0
0.617369 0.464781 0.464781 1 1 0
0.618104 0.464924 0.464924 1 1 0
0.618838 0.465068 0.465068 1 1 0
0.619571 0.465211 0.465211 1 1 0
0.620304 0.465355 0.465355 1 1 0
0.621036 0.465498 0.465498 1 1 0
0.621767 0.465642 0.465642 1 1 0
0.622498 0.465785 0.465785 1 1 0
0.623229 0.465928 0.465928 1 1 0
0.623959 0.466072 0.466072 1 1 0
0.624688 0.466215 0.466215 1 1 0
0.625416 0.466358 0.466358 1 1 0
0.626144 0.466501 0.466501 1 1 0
0.626872 0.466644 0.466644 1 1 0
0.627599 0.466787 0.466787 1 1 0
0.628325 0.46693 0.46693 1 1 0
0.629051 0.467073 0.467073 1 1 0
0.629776 0.467216 0.467216 1 1 0
0.630501 0.467359 0.467359 1 1 0
0.631225 0.467502 0.467502 1 1 0
0.631948 0.467644 0.467644 1 1 0
0.632671 0.467787 0.467787 1 1 0
0.633393 0.46793 0.46793 1 1 0
0.634115 0.468072 0.468072 1 1 0
0.634836 0.468215 0.468215 1 1 0
0.635557 0.468357 0.468357 1 1 0
0.636277 0.4685 0.4685 1 1 0
0.636996 0.468642 0.468642 1 1 0
0.637715 0.468785 0.468785 1 1 0
0.638433 0.468927 0.468927 1 1 0
0.639151 0.469069 0.469069 1 1 0
0.639868 0.469211 0.469211 1 1 0
0.640585 0.469354 0.469354 1 1 0
0.641301 0.469496 0.469496 1 1 0
0.642016 0.469638 0.469638 1 1 0
0.642731 0.46978 0.46978 1 1 0
0.643446 0.469922 0.469922 1 1 0
0.644159 0.470064 0.470064 1 1 0
0.644873 0.470206 0.470206 1 1 0
0.645585 0.470348 0.470348 1 1 0
0.646297 0.47049 0.47049 1 1 0
0.647009 0.470631 0.470631 1 1 0
0.64772 0.470773 0.470773 1 1 0
0.64843 0.470915 0.470915 1 1 0
0.64914 0.471056 0.471056 1 1 0
0.64985 0.471198 0.471198 1 1 0
0.650558 0.47134 0.47134 1 1 0
0.651267 0.471481 0.471481 1 1 0
0.651974 0.471623 0.471623 1 1 0
0.652681 0.471764 0.471764 1 1 0
0.653388 0.471905 0.471905 1 1 0
0.654094 0.472047 0.472047 1 1 0
0.654799 0.472188 0.472188 1 1 0
0.655504 0.472329 0.472329 1 1 0
0.656209 0.47247 0.47247 1 1 0
0.656912 0.472612 0.472612 1 1 0
0.657616 0.472753 0.472753 1 1 0
0.658318 0.472894 0.472894 1 1 0
0.659021 0.473035 0.473035 1 1 0
0.659722 0.473176 0.473176 1 1 0
0.660423 0.473317 0.473317 1 1 0
0.661124 0.473458 0.473458 1 1 0
0.661824 0.473599 0.473599 1 1 0
0.662523 0.473739 0.473739 1 1 0
0.663222 0.47388 0.47388 1 1 0
0.663921 0.474021 0.474021 1 1 0
0.664618 0.474162 0.474162 1 1 0
0.665316 0.474302 0.474302 1 1 0
0.666012 0.474443 0.474443 1 1 0
0.666709 0.474583 0.474583 1 1 0
0.667404 0.474724 0.474724 1 1 0
0.668099 0.474864 0.474864 1 1 0
0.668794 0.475005 0.475005 1 1 0
0.669488 0.475145 0.475145 1 1 0
0.670182 0.475285 0.475285 1 1 0
0.670875 0.475426 0.475426 1 1 0
0.671567 0.475566 0.475566 1 1 0
0.672259 0.475706 0.475706 1 1 0
0.67295 0.475846 0.475846 1 1 0
0.673641 0.475986 0.475986 1 1 0
0.674332 0.476126 0.476126 1 1 0
0.675021 0.476266 0.476266 1 1 0
0.675711 0.476406 0.476406 1 1 0
0.6764 0.476546 0.476546 1 1 0
0.677088 0.476686 0.476686 1 1 0
0.677775 0.476826 0.476826 1 1 0
0.678463 0.476966 0.476966 1 1 0
0.679149 0.477106 0.477106 1 1 0
0.679835 0.477245 0.477245 1 1 0
0.680521 0.477385 0.477385 1 1 0
0.681206 0.477525 0.477525 1 1 0
0.681891 0.477664 0.477664 1 1 0
0.682575 0.477804 0.477804 1 1 0
0.683258 0.477943 0.477943 1 1 0
0.683941 0.478083 0.478083 1 1 0
0.684624 0.478222 0.478222 1 1 0
0.685306 0.478362 0.478362 1 1 0
0.685987 0.478501 0.478501 1 1 0
0.686668 0.47864 0.47864 1 1 0
0.687348 0.47878 0.47878 1 1 0
0.688028 0.478919 0.478919 1 1 0
0.688708 0.479058 0.479058 1 1 0
0.689387 0.479197 0.479197 1 1 0
0.690065 0.479336 0.479336 1 1 0
0.690743 0.479475 0.479475 1 1 0
0.69142 0.479614 0.479614 1 1 0
0.692097 0.479753 0.479753 1 1 0
0.692773 0.479892 0.479892 1 1 0
0.693449 0.480031 0.480031 1 1 0
0.694124 0.48017 0.48017 1 1 0
0.694799 0.480309 0.480309 1 1 0
0.695474 0.480448 0.480448 1 1 0
0.696147 0.480586 0.480586 1 1 0
0.696821 0.480725 0.480725 1 1 0
0.697493 0.480864 0.480864 1 1 0
0.698166 0.481002 0.481002 1 1 0
0.698837 0.481141 0.481141 1 1 0
0.699509 0.481279 0.481279 1 1 0
0.700179 0.481418 0.481418 1 1 0
0.70085 0.481556 0.481556 1 1 0
0.701519 0.481695 0.481695 1 1 0
0.702189 0.481833 0.481833 1 1 0
0.702857 0.481971 0.481971 1 1 0
0.703526 0.48211 0.48211 1 1 0
0.704193 0.482248 0.482248 1 1 0
0.704861 0.482386 0.482386 1 1 0
0.705527 0.482524 0.482524 1 1 0
0.706194 0.482662 0.482662 1 1 0
0.706859 0.4828 0.4828 1 1 0
0.707525 0.482938 0.482938 1 1 0
0.708189 0.483076 0.483076 1 1 0
0.708854 0.483214 0.483214 1 1 0
0.709518 0.483352 0.483352 1 1 0
0.710181 0.48349 0.48349 1 1 0
0.710844 0.483628 0.483628 1 1 0
0.711506 0.483766 0.483766 1 1 0
0.712168 0.483904 0.483904 1 1 0
0.712829 0.484041 0.484041 1 1 0
0.71349 0.484179 0.484179 1 1 0
0.71415 0.484317 0.484317 1 1 0
0.71481 0.484454 0.484454 1 1 0
0.71547 0.484592 0.484592 1 1 0
0.716129 0.484729 0.484729 1 1 0
0.716787 0.484867 0.484867 1 1 0
0.717445 0.485004 0.485004 1 1 0
0.718102 0.485142 0.485142 1 1 0
0.718759 0.485279 0.485279 1 1 0
0.719416 0.485416 0.485416 1 1 0
0.720072 0.485554 0.485554 1 1 0
0.720727 0.485691 0.485691 1 1 0
0.721382 0.485828 0.485828 1 1 0
0.722037 0.485965 0.485965 1 1 0
0.722691 0.486102 0.486102 1 1 0
0.723345 0.486239 0.486239 1 1 0
0.723998 0.486376 0.486376 1 1 0
0.724651 0.486513 0.486513 1 1 0
0.725303 0.48665 0.48665 1 1 0
0.725955 0.486787 0.486787 1 1 0
0.726606 0.486924 0.486924 1 1 0
0.727257 0.487061 0.487061 1 1 0
0.727907 0.487198 0.487198 1 1 0
0.728557 0.487335 0.487335 1 1 0
0.729206 0.487471 0.487471 1 1 0
0.729855 0.487608 0.487608 1 1 0
0.730503 0.487745 0.487745 1 1 0
0.731151 0.487881 0.487881 1 1 0
0.731799 0.488018 0.488018 1 1 0
0.732446 0.488155 0.488155 1 1 0
0.733092 0.488291 0.488291 1 1 0
0.733738 0.488427 0.488427 1 1 0
0.734384 0.488564 0.488564 1 1 0
0.735029 0.4887 0.4887 1 1 0
0.735674 0.488837 0.488837 1 1 0
0.736318 0.488973 0.488973 1 1 0
0.736962 0.489109 0.489109 1 1 0
0.737605 0.489246 0.489246 1 1 0
0.738248 0.489382 0.489382 1 1 0
0.73889 0.489518 0.489518 1 1 0
0.739532 0.489654 0.489654 1 1 0
0.740174 0.48979 0.48979 1 1 0
0.740814 0.489926 0.489926 1 1 0
0.741455 0.490062 0.490062 1 1 0
0.742095 0.490198 0.490198 1 1 0
0.742735 0.490334 0.490334 1 1 0
0.743374 0.49047 0.49047 1 1 0
0.744013 0.490606 0.490606 1 1 0
0.744651 0.490742 0.490742 1 1 0
0.745289 0.490877 0.490877 1 1 0
0.745926 0.491013 0.491013 1 1 0
0.746563 0.491149 0.491149 1 1 0
0.747199 0.491285 0.491285 1 1 0
0.747835 0.49142 0.49142 1 1 0
0.748471 0.491556 0.491556 1 1 0
0.749106 0.491691 0.491691 1 1 0
0.74974 0.491827 0.491827 1 1 0
0.750375 0.491962 0.491962 1 1 0
0.751008 0.492098 0.492098 1 1 0
0.751642 0.492233 0.492233 1 1 0
0.752274 0.492369 0.492369 1 1 0
0.752907 0.492504 0.492504 1 1 0
0.753539 0.492639 0.492639 1 1 0
0.75417 0.492775 0.492775 1 1 0
0.754801 0.49291 0.49291 1 1 0
0.755432 0.493045 0.493045 1 1 0
0.756062 0.49318 0.49318 1 1 0
0.756692 0.493315 0.493315 1 1 0
0.757321 0.49345 0.49345 1 1 0
0.75795 0.493585 0.493585 1 1 0
0.758578 0.49372 0.49372 1 1 0
0.759206 0.493855 0.493855 1 1 0
0.759834 0.49399 0.49399 1 1 0
0.760461 0.494125 0.494125 1 1 0
0.761087 0.49426 0.49426 1 1 0
0.761714 0.494395 0.494395 1 1 0
0.762339 0.49453 0.49453 1 1 0
0.762965 0.494665 0.494665 1 1 0
0.76359 0.494799 0.494799 1 1 0
0.764214 0.494934 0.494934 1 1 0
0.764838 0.495069 0.495069 1 1 0
0.765462 0.495203 0.495203 1 1 0
0.766085 0.495338 0.495338 1 1 0
0.766708 0.495472 0.495472 1 1 0
0.76733 0.495607 0.495607 1 1 0
0.767952 0.495741 0.495741 1 1 0
0.768573 0.495876 0.495876 1 1 0
0.769194 0.49601 0.49601 1 1 0
0.769815 0.496145 0.496145 1 1 0
0.770435 0.496279 0.496279 1 1 0
0.771055 0.496413 0.496413 1 1 0
0.771674 0.496548 0.496548 1 1 0
0.772293 0.496682 0.496682 1 1 0
0.772911 0.496816 0.496816 1 1 0
0.773529 0.49695 0.49695 1 1 0
0.774147 0.497084 0.497084 1 1 0
0.774764 0.497218 0.497218 1 1 0
0.775381 0.497352 0.497352 1 1 0
0.775997 0.497486 0.497486 1 1 0
0.776613 0.49762 0.49762 1 1 0
0.777229 0.497754 0.497754 1 1 0
0.777844 0.497888 0.497888 1 1 0
0.778458 0.498022 0.498022 1 1 0
0.779072 0.498156 0.498156 1 1 0
0.779686 0.49829 0.49829 1 1 0
0.7803 0.498424 0.498424 1 1 0
0.780913 0.498557 0.498557 1 1 0
0.781525 0.498691 0.498691 1 1 0
0.782137 0.498825 0.498825 1 1 0
0.782749 0.498958 0.498958 1 1 0
0.78336 0.499092 0.499092 1 1 0
0.783971 0.499226 0.499226 1 1 0
0.784582 0.499359 0.499359 1 1 0
0.785192 0.499493 0.499493 1 1 0
0.785801 0.499626 0.499626 1 1 0
0.786411 0.49976 0.49976 1 1 0
0.787019 0.499893 0.499893 1 1 0
0.787628 0.500026 0.500026 1 1 0
0.788236 0.50016 0.50016 1 1 0
0.788843 0.500293 0.500293 1 1 0
0.789451 0.500426 0.500426 1 1 0
0.790057 0.500559 0.500559 1 1 0
0.790664 0.500693 0.500693 1 1 0
0.79127 0.500826 0.500826 1 1 0
0.791875 0.500959 0.500959 1 1 0
0.792481 0.501092 0.501092 1 1 0
0.793085 0.501225 0.501225 1 1 0
0.79369 0.501358 0.501358 1 1 0
0.794294 0.501491 0.501491 1 1 0
0.794897 0.501624 0.501624 1 1 0
0.7955 0.501757 0.501757 1 1 0
0.796103 0.50189 0.50189 1 1 0
0.796705 0.502023 0.502023 1 1 0
0.797307 0.502156 0.502156 1 1 0
0.797909 0.502288 0.502288 1 1 0
0.79851 0.502421 0.502421 1 1 0
0.799111 0.502554 0.502554 1 1 0
0.799711 0.502687 0.502687 1 1 0
0.800311 0.502819 0.502819 1 1 0
0.80091 0.502952 0.502952 1 1 0
0.80151 0.503085 0.503085 1 1 0
0.802108 0.503217 0.503217 1 1 0
0.802707 0.50335 0.50335 1 1 0
0.803305 0.503482 0.503482 1 1 0
0.803902 0.503615 0.503615 1 1 0
0.804499 0.503747 0.503747 1 1 0
0.805096 0.503879 0.503879 1 1 0
0.805693 0.504012 0.504012 1 1 0
0.806289 0.504144 0.504144 1 1 0
0.806884 0.504276 0.504276 1 1 0
0.807479 0.504409 0.504409 1 1 0
0.808074 0.504541 0.504541 1 1 0
0.808669 0.504673 0.504673 1 1 0
0.809263 0.504805 0.504805 1 1 0
0.809856 0.504938 0.504938 1 1 0
0.81045 0.50507 0.50507 1 1 0
0.811043 0.505202 0.505202 1 1 0
0.811635 0.505334 0.505334 1 1 0
0.812227 0.505466 0.505466 1 1 0
0.812819 0.505598 0.505598 1 1 0
0.81341 0.50573 0.50573 1 1 0
0.814001 0.505862 0.505862 1 1 0
0.814592 0.505993 0.505993 1 1 0
0.815182 0.506125 0.506125 1 1 0
0.815772 0.506257 0.506257 1 1 0
0.816361 0.506389 0.506389 1 1 0
0.81695 0.506521 0.506521 1 1 0
0.817539 0.506652 0.506652 1 1 0
0.818127 0.506784 0.506784 1 1 0
0.818715 0.506916 0.506916 1 1 0
0.819303 0.507047 0.507047 1 1 0
0.81989 0.507179 0.507179 1 1 0
0.820477 0.507311 0.507311 1 1 0
0.821063 0.507442 0.507442 1 1 0
0.821649 0.507574 0.507574 1 1 0
0.822235 0.507705 0.507705 1 1 0
0.82282 0.507837 0.507837 1 1 0
0.823405 0.507968 0.507968 1 1 0
0.823989 0.508099 0.508099 1 1 0
0.824574 0.508231 0.508231 1 1 0
0.825157 0.508362 0.508362 1 1 0
0.825741 0.508493 0.508493 1 1 0
0.826324 0.508625 0.508625 1 1 0
0.826906 0.508756 0.508756 1 1 0
0.827489 0.508887 0.508887 1 1 0
0.828071 0.509018 0.509018 1 1 0
0.828652 0.509149 0.509149 1 1 0
0.829233 0.50928 0.50928 1 1 0
0.829814 0.509412 0.509412 1 1 0
0.830395 0.509543 0.509543 1 1 0
0.830975 0.509674 0.509674 1 1 0
0.831555 0.509805 0.509805 1 1 0
0.832134 0.509935 0.509935 1 1 0
0.832713 0.510066 0.510066 1 1 0
0.833292 0.510197 0.510197 1 1 0
0.83387 0.510328 0.510328 1 1 0
0.834448 0.510459 0.510459 1 1 0
0.835025 0.51059 0.51059 1 1 0
0.835602 0.510721 0.510721 1 1 0
0.836179 0.510851 0.510851 1 1 0
0.836756 0.510982 0.510982 1 1 0
0.837332 0.511113 0.511113 1 1 0
0.837908 0.511243 0.511243 1 1 0
0.838483 0.511374 0.511374 1 1 0
0.839058 0.511505 0.511505 1 1 0
0.839633 0.511635 0.511635 1 1 0
0.840207 0.511766 0.511766 1 1 0
0.840781 0.511896 0.511896 1 1 0
0.841354 0.512027 0.512027 1 1 0
0.841928 0.512157 0.512157 1 1 0
0.842501 0.512287 0.512287 1 1 0
0.843073 0.512418 0.512418 1 1 0
0.843645 0.512548 0.512548 1 1 0
0.844217 0.512678 0.512678 1 1 0
0.844788 0.512809 0.512809 1 1 0
0.84536 0.512939 0.512939 1 1 0
0.84593 0.513069 0.513069 1 1 0
0.846501 0.513199 0.513199 1 1 0
0.847071 0.51333 0.51333 1 1 0
0.84764 0.51346 0.51346 1 1 0
0.84821 0.51359 0.51359 1 1 0
0.848779 0.51372 0.51372 1 1 0
0.849348 0.51385 0.51385 1 1 0
0.849916 0.51398 0.51398 1 1 0
0.850484 0.51411 0.51411 1 1 0
0.851051 0.51424 0.51424 1 1 0
0.851619 0.51437 0.51437 1 1 0
0.852186 0.5145 0.5145 1 1 0
0.852752 0.51463 0.51463 1 1 0
0.853318 0.51476 0.51476 1 1 0
0.853884 0.514889 0.514889 1 1 0
0.85445 0.515019 0.515019 1 1 0
0.855015 0.515149 0.515149 1 1 0
0.85558 0.515279 0.515279 1 1 0
0.856144 0.515408 0.515408 1 1 0
0.856709 0.515538 0.515538 1 1 0
0.857272 0.515668 0.515668 1 1 0
0.857836 0.515797 0.515797 1 1 0
0.858399 0.515927 0.515927 1 1 0
0.858962 0.516056 0.516056 1 1 0
0.859524 0.516186 0.516186 1 1 0
0.860086 0.516315 0.516315 1 1 0
0.860648 0.516445 0.516445 1 1 0
0.86121 0.516574 0.516574 1 1 0
0.861771 0.516704 0.516704 1 1 0
0.862332 0.516833 0.516833 1 1 0
0.862892 0.516963 0.516963 1 1 0
0.863452 0.517092 0.517092 1 1 0
0.864012 0.517221 0.517221 1 1 0
0.864571 0.517351 0.517351 1 1 0
0.86513 0.51748 0.51748 1 1 0
0.865689 0.517609 0.517609 1 1 0
0.866248 0.517738 0.517738 1 1 0
0.866806 0.517867 0.517867 1 1 0
0.867364 0.517996 0.517996 1 1 0
0.867921 0.518126 0.518126 1 1 0
0.868478 0.518255 0.518255 1 1 0
0.869035 0.518384 0.518384 1 1 0
0.869591 0.518513 0.518513 1 1 0
0.870148 0.518642 0.518642 1 1 0
0.870703 0.518771 0.518771 1 1 0
0.871259 0.5189 0.5189 1 1 0
0.871814 0.519029 0.519029 1 1 0
0.872369 0.519157 0.519157 1 1 0
0.872923 0.519286 0.519286 1 1 0
0.873477 0.519415 0.519415 1 1 0
0.874031 0.519544 0.519544 1 1 0
0.874585 0.519673 0.519673 1 1 0
0.875138 0.519802 0.519802 1 1 0
0.875691 0.51993 0.51993 1 1 0
0.876243 0.520059 0.520059 1 1 0
0.876796 0.520188 0.520188 1 1 0
0.877348 0.520316 0.520316 1 1 0
0.877899 0.520445 0.520445 1 1 0
0.87845 0.520573 0.520573 1 1 0
0.879001 0.520702 0.520702 1 1 0
0.879552 0.520831 0.520831 1 1 0
0.880102 0.520959 0.520959 1 1 0
0.880652 0.521088 0.521088 1 1 0
0.881202 0.521216 0.521216 1 1 0
0.881751 0.521344 0.521344 1 1 0
0.8823 0.521473 0.521473 1 1 0
0.882849 0.521601 0.521601 1 1 0
0.883397 0.52173 0.52173 1 1 0
0.883946 0.521858 0.521858 1 1 0
0.884493 0.521986 0.521986 1 1 0
0.885041 0.522114 0.522114 1 1 0
0.885588 0.522243 0.522243 1 1 0
0.886135 0.522371 0.522371 1 1 0
0.886681 0.522499 0.522499 1 1 0
0.887227 0.522627 0.522627 1 1 0
0.887773 0.522755 0.522755 1 1 0
0.888319 0.522883 0.522883 1 1 0
0.888864 0.523012 0.523012 1 1 0
0.889409 0.52314 0.52314 1 1 0
0.889954 0.523268 0.523268 1 1 0
0.890498 0.523396 0.523396 1 1 0
0.891042 0.523524 0.523524 1 1 0
0.891586 0.523652 0.523652 1 1 0
0.892129 0.523779 0.523779 1 1 0
0.892672 0.523907 0.523907 1 1 0
0.893215 0.524035 0.524035 1 1 0
0.893758 0.524163 0.524163 1 1 0
0.8943 0.524291 0.524291 1 1 0
0.894842 0.524419 0.524419 1 1 0
0.895383 0.524546 0.524546 1 1 0
0.895925 0.524674 0.524674 1 1 0
0.896466 0.524802 0.524802 1 1 0
0.897006 0.52493 0.52493 1 1 0
0.897547 0.525057 0.525057 1 1 0
0.898087 0.525185 0.525185 1 1 0
0.898626 0.525313 0.525313 1 1 0
0.899166 0.52544 0.52544 1 1 0
0.899705 0.525568 0.525568 1 1 0
0.900244 0.525695 0.525695 1 1 0
0.900782 0.525823 0.525823 1 1 0
0.901321 0.52595 0.52595 1 1 0
0.901859 0.526078 0.526078 1 1 0
0.902396 0.526205 0.526205 1 1 0
0.902934 0.526333 0.526333 1 1 0
0.903471 0.52646 0.52646 1 1 0
0.904007 0.526587 0.526587 1 1 0
0.904544 0.526715 0.526715 1 1 0
0.90508 0.526842 0.526842 1 1 0
0.905616 0.526969 0.526969 1 1 0
0.906152 0.527096 0.527096 1 1 0
0.906687 0.527224 0.527224 1 1 0
0.907222 0.527351 0.527351 1 1 0
0.907756 0.527478 0.527478 1 1 0
0.908291 0.527605 0.527605 1 1 0
0.908825 0.527732 0.527732 1 1 0
0.909359 0.527859 0.527859 1 1 0
0.909892 0.527987 0.527987 1 1 0
0.910426 0.528114 0.528114 1 1 0
0.910958 0.528241 0.528241 1 1 0
0.911491 0.528368 0.528368 1 1 0
0.912023 0.528495 0.528495 1 1 0
0.912556 0.528622 0.528622 1 1 0
0.913087 0.528749 0.528749 1 1 0
0.913619 0.528875 0.528875 1 1 0
0.91415 0.529002 0.529002 1 1 0
0.914681 0.529129 0.529129 1 1 0
0.915212 0.529256 0.529256 1 1 0
0.915742 0.529383 0.529383 1 1 0
0.916272 0.52951 0.52951 1 1 0
0.916802 0.529636 0.529636 1 1 0
0.917331 0.529763 0.529763 1 1 0
0.91786 0.52989 0.52989 1 1 0
0.918389 0.530017 0.530017 1 1 0
0.918918 0.530143 0.530143 1 1 0
0.919446 0.53027 0.53027 1 1 0
0.919974 0.530396 0.530396 1 1 0
0.920502 0.530523 0.530523 1 1 0
0.92103 0.53065 0.53065 1 1 0
0.921557 0.530776 0.530776 1 1 0
0.922084 0.530903 0.530903 1 1 0
0.922611 0.531029 0.531029 1 1 0
0.923137 0.531156 0.531156 1 1 0
0.923663 0.531282 0.531282 1 1 0
0.924189 0.531409 0.531409 1 1 0
0.924714 0.531535 0.531535 1 1 0
0.92524 0.531661 0.531661 1 1 0
0.925765 0.531788 0.531788 1 1 0
0.926289 0.531914 0.531914 1 1 0
0.926814 0.53204 0.53204 1 1 0
0.927338 0.532167 0.532167 1 1 0
0.927862 0.532293 0.532293 1 1 0
0.928385 0.532419 0.532419 1 1 0
0.928909 0.532545 0.532545 1 1 0
0.929432 0.532672 0.532672 1 1 0
0.929955 0.532798 0.532798 1 1 0
0.930477 0.532924 0.532924 1 1 0
0.930999 0.53305 0.53305 1 1 0
0.931521 0.533176 0.533176 1 1 0
0.932043 0.533302 0.533302 1 1 0
0.932564 0.533428 0.533428 1 1 0
0.933086 0.533554 0.533554 1 1 0
0.933606 0.53368 0.53368 1 1 0
0.934127 0.533806 0.533806 1 1 0
0.934647 0.533932 0.533932 1 1 0
0.935167 0.534058 0.534058 1 1 0
0.935687 0.534184 0.534184 1 1 0
0.936207 0.53431 0.53431 1 1 0
0.936726 0.534436 0.534436 1 1 0
0.937245 0.534562 0.534562 1 1 0
0.937764 0.534688 0.534688 1 1 0
0.938282 0.534813 0.534813 1 1 0
0.9388 0.534939 0.534939 1 1 0
0.939318 0.535065 0.535065 1 1 0
0.939836 0.535191 0.535191 1 1 0
0.940353 0.535316 0.535316 1 1 0
0.940871 0.535442 0.535442 1 1 0
0.941387 0.535568 0.535568 1 1 0
0.941904 0.535693 0.535693 1 1 0
0.94242 0.535819 0.535819 1 1 0
0.942936 0.535945 0.535945 1 1 0
0.943452 0.53607 0.53607 1 1 0
0.943968 0.536196 0.536196 1 1 0
0.944483 0.536321 0.536321 1 1 0
0.944998 0.536447 0.536447 1 1 0
0.945513 0.536572 0.536572 1 1 0
0.946027 0.536698 0.536698 1 1 0
0.946542 0.536823 0.536823 1 1 0
0.947056 0.536949 0.536949 1 1 0
0.947569 0.537074 0.537074 1 1 0
0.948083 0.537199 0.537199 1 1 0
0.948596 0.537325 0.537325 1 1 0
0.949109 0.53745 0.53745 1 1 0
0.949622 0.537575 0.537575 1 1 0
0.950134 0.537701 0.537701 1 1 0
0.950646 0.537826 0.537826 1 1 0
0.951158 0.537951 0.537951 1 1 0
0.95167 0.538076 0.538076 1 1 0
0.952181 0.538202 0.538202 1 1 0
0.952693 0.538327 0.538327 1 1 0
0.953204 0.538452 0.538452 1 1 0
0.953714 0.538577 0.538577 1 1 0
0.954225 0.538702 0.538702 1 1 0
0.954735 0.538827 0.538827 1 1 0
0.955245 0.538952 0.538952 1 1 0
0.955754 0.539077 0.539077 1 1 0
0.956264 0.539202 0.539202 1 1 0
0.956773 0.539327 0.539327 1 1 0
0.957282 0.539452 0.539452 1 1 0
0.957791 0.539577 0.539577 1 1 0
0.958299 0.539702 0.539702 1 1 0
0.958807 0.539827 0.539827 1 1 0
0.959315 0.539952 0.539952 1 1 0
0.959823 0.540077 0.540077 1 1 0
0.96033 0.540202 0.540202 1 1 0
0.960837 0.540327 0.540327 1 1 0
0.961344 0.540452 0.540452 1 1 0
0.961851 0.540576 0.540576 1 1 0
0.962357 0.540701 0.540701 1 1 0
0.962863 0.540826 0.540826 1 1 0
0.963369 0.540951 0.540951 1 1 0
0.963875 0.541075 0.541075 1 1 0
0.96438 0.5412 0.5412 1 1 0
0.964886 0.541325 0.541325 1 1 0
0.965391 0.541449 0.541449 1 1 0
0.965895 0.541574 0.541574 1 1 0
0.9664 0.541699 0.541699 1 1 0
0.966904 0.541823 0.541823 1 1 0
0.967408 0.541948 0.541948 1 1 0
0.967912 0.542072 0.542072 1 1 0
0.968415 0.542197 0.542197 1 1 0
0.968919 0.542321 0.542321 1 1 0
0.969422 0.542446 0.542446 1 1 0
0.969924 0.54257 0.54257 1 1 0
0.970427 0.542695 0.542695 1 1 0
0.970929 0.542819 0.542819 1 1 0
0.971431 0.542944 0.542944 1 1 0
0.971933 0.543068 0.543068 1 1 0
0.972435 0.543192 0.543192 1 1 0
0.972936 0.543317 0.543317 1 1 0
0.973437 0.543441 0.543441 1 1 0
0.973938 0.543565 0.543565 1 1 0
0.974439 0.54369 0.54369 1 1 0
0.974939 0.543814 0.543814 1 1 0
0.975439 0.543938 0.543938 1 1 0
0.975939 0.544062 0.544062 1 1 0
0.976439 0.544186 0.544186 1 1 0
0.976938 0.544311 0.544311 1 1 0
0.977438 0.544435 0.544435 1 1 0
0.977937 0.544559 0.544559 1 1 0
0.978435 0.544683 0.544683 1 1 0
0.978934 0.544807 0.544807 1 1 0
0.979432 0.544931 0.544931 1 1 0
0.97993 0.545055 0.545055 1 1 0
0.980428 0.545179 0.545179 1 1 0
0.980926 0.545303 0.545303 1 1 0
0.981423 0.545427 0.545427 1 1 0
0.98192 0.545551 0.545551 1 1 0
0.982417 0.545675 0.545675 1 1 0
0.982914 0.545799 0.545799 1 1 0
0.98341 0.545923 0.545923 1 1 0
0.983906 0.546047 0.546047 1 1 0
0.984402 0.546171 0.546171 1 1 0
0.984898 0.546295 0.546295 1 1 0
0.985394 0.546419 0.546419 1 1 0
0.985889 0.546543 0.546543 1 1 0
0.986384 0.546666 0.546666 1 1 0
0.986879 0.54679 0.54679 1 1 0
0.987374 0.546914 0.546914 1 1 0
0.987868 0.547038 0.547038 1 1 0
0.988362 0.547161 0.547161 1 1 0
0.988856 0.547285 0.547285 1 1 0
0.98935 0.547409 0.547409 1 1 0
0.989844 0.547533 0.547533 1 1 0
0.990337 0.547656 0.547656 1 1 0
0.99083 0.54778 0.54778 1 1 0
0.991323 0.547903 0.547903 1 1 0
