0.040385 0.0675137 0.0675137 1 1 0
0.0399785 0.067248 0.067248 1 1 0
0.0395745 0.0669836 0.0669836 1 1 0
0.0391729 0.0667205 0.0667205 1 1 0
0.0387737 0.0664587 0.0664587 1 1 0
0.0383769 0.0661982 0.0661982 1 1 0
0.0379825 0.065939 0.065939 1 1 0
0.0375905 0.0656812 0.0656812 1 1 0
0.037201 0.0654247 0.0654247 1 1 0
0.0368138 0.0651695 0.0651695 1 1 0
0.036429 0.0649156 0.0649156 1 1 0
0.0360465 0.064663 0.064663 1 1 0
0.0356665 0.0644118 0.0644118 1 1 0
0.0352887 0.0641619 0.0641619 1 1 0
0.0349134 0.0639132 0.0639132 1 1 0
1.62998 0.371883 0.371883 4 2 0
1.62997 0.376081 0.367694 3 2 0
1.62997 0.376673 0.367105 3 2 0
1.62989 0.385093 0.358766 3 2 0
1.62973 0.393563 0.350461 3 2 0
1.62947 0.402067 0.342203 3 2 0
1.62909 0.410584 0.334035 3 2 0
1.62857 0.419126 0.325906 3 2 0
1.62788 0.427646 0.317829 3 2 0
1.62698 0.436115 0.309936 3 2 0
1.62585 0.444463 0.30214 3 2 0
1.62447 0.452596 0.294592 3 2 0
1.62281 0.460438 0.287448 3 2 0
1.62091 0.467854 0.280699 3 2 0
1.61878 0.474795 0.274388 3 2 0
1.61646 0.481352 0.268491 3 2 0
1.614 0.487288 0.263162 3 2 0
1.61143 0.492732 0.258282 3 2 0
1.60878 0.49778 0.253629 3 2 0
1.60607 0.50242 0.249491 3 2 0
1.60331 0.506699 0.245674 3 2 0
1.60053 0.51061 0.2421 3 2 0
1.59772 0.514299 0.238804 3 2 0
1.59489 0.517737 0.235727 3 2 0
1.59205 0.520954 0.232928 3 2 0
1.5892 0.523954 0.23021 3 2 0
1.58635 0.526775 0.227648 3 2 0
1.5835 0.529305 0.225327 3 2 0
1.58065 0.531807 0.223029 3 2 0
1.5778 0.534178 0.220844 3 2 0
1.57495 0.536489 0.218771 3 2 0
1.5721 0.538673 0.216791 3 2 0
1.56925 0.540754 0.214895 3 2 0
1.56641 0.54276 0.212994 3 2 0
1.56357 0.544661 0.211248 3 2 0
1.56074 0.546481 0.209569 3 2 0
1.55791 0.548205 0.207981 3 2 0
1.55508 0.549882 0.206425 3 2 0
1.55226 0.551494 0.204924 3 2 0
1.54945 0.55303 0.203364 3 2 0
1.54664 0.554524 0.201959 3 2 0
1.54383 0.555965 0.200598 3 2 0
1.54103 0.557406 0.199293 3 2 0
1.53824 0.558747 0.198015 3 2 0
1.53545 0.560044 0.196774 3 2 0
1.53266 0.561242 0.195526 3 2 0
1.52988 0.562457 0.194351 3 2 0
1.52711 0.563634 0.193207 3 2 0
1.52434 0.564708 0.192102 3 2 0
1.52157 0.565815 0.191014 3 2 0
1.51881 0.566889 0.189953 3 2 0
1.51606 0.567848 0.188915 3 2 0
1.51331 0.568862 0.187905 3 2 0
1.51056 0.569846 0.186919 3 2 0
1.50782 0.570756 0.18596 3 2 0
1.50509 0.571687 0.185021 3 2 0
1.50236 0.572593 0.184102 3 2 0
1.49964 0.573344 0.183212 3 2 0
1.49692 0.574204 0.182326 3 2 0
1.4942 0.575041 0.181459 3 2 0
1.49149 0.575777 0.180645 3 2 0
1.48879 0.576572 0.179809 3 2 0
1.48608 0.577347 0.17899 3 2 0
1.48339 0.578125 0.178235 3 2 0
1.4807 0.578853 0.177443 3 2 0
1.47801 0.579564 0.176667 3 2 0
1.47533 0.580292 0.175978 3 2 0
1.47265 0.580971 0.175225 3 2 0
1.46998 0.581634 0.174486 3 2 0
1.46731 0.582369 0.173785 3 2 0
1.46465 0.583003 0.173071 3 2 0
1.46199 0.583624 0.172369 3 2 0
1.45934 0.584314 0.171701 3 2 0
1.45669 0.584909 0.171021 3 2 0
1.45405 0.585491 0.170353 3 2 0
1.45141 0.58611 0.169733 3 2 0
1.44877 0.586668 0.169084 3 2 0
1.44614 0.587214 0.168445 3 2 0
1.44352 0.587804 0.167838 3 2 0
1.44089 0.588329 0.167218 3 2 0
1.43828 0.588843 0.166607 3 2 0
1.43566 0.589381 0.166045 3 2 0
1.43306 0.589875 0.16545 3 2 0
1.43045 0.59036 0.164865 3 2 0
1.42785 0.590856 0.164333 3 2 0
1.42526 0.591323 0.163762 3 2 0
1.42267 0.59178 0.163199 3 2 0
1.42008 0.59224 0.162702 3 2 0
1.4175 0.592681 0.162152 3 2 0
1.41492 0.593113 0.161609 3 2 0
1.41235 0.593547 0.161135 3 2 0
1.40978 0.593964 0.160604 3 2 0
1.40722 0.594374 0.16008 3 2 0
1.40466 0.594795 0.159606 3 2 0
1.4021 0.595191 0.159094 3 2 0
1.39955 0.595579 0.158589 3 2 0
1.397 0.595976 0.158137 3 2 0
1.39446 0.596351 0.157643 3 2 0
1.39192 0.596719 0.157156 3 2 0
1.38939 0.597092 0.156726 3 2 0
1.38686 0.597448 0.156248 3 2 0
1.38433 0.597798 0.155776 3 2 0
1.38181 0.598149 0.155368 3 2 0
1.37929 0.598488 0.154905 3 2 0
1.37678 0.598821 0.154448 3 2 0
1.37427 0.599152 0.154061 3 2 0
1.37177 0.599475 0.153612 3 2 0
1.36927 0.599792 0.153168 3 2 0
1.36677 0.600105 0.152782 3 2 0
1.36428 0.600413 0.152368 3 2 0
1.36179 0.600716 0.151936 3 2 0
1.35931 0.601009 0.15151 3 2 0
1.35683 0.601303 0.151122 3 2 0
1.35435 0.601592 0.150738 3 2 0
1.35188 0.601858 0.150255 3 2 0
1.34942 0.602139 0.149876 3 2 0
1.34695 0.602416 0.149502 3 2 0
1.34449 0.602681 0.149064 3 2 0
1.34204 0.60295 0.148695 3 2 0
1.33959 0.603215 0.148331 3 2 0
1.33714 0.603503 0.147971 3 2 0
1.3347 0.603761 0.147615 3 2 0
1.33226 0.604015 0.147264 3 2 0
1.32983 0.60429 0.146935 3 2 0
1.3274 0.604537 0.146592 3 2 0
1.32497 0.604781 0.146216 3 2 0
1.32255 0.605029 0.145857 3 2 0
1.32013 0.605266 0.145489 3 2 0
1.31772 0.6055 0.145124 3 2 0
1.31531 0.605732 0.144792 3 2 0
1.3129 0.60596 0.144434 3 2 0
1.3105 0.606185 0.14408 3 2 0
1.30811 0.606407 0.143763 3 2 0
1.30571 0.606626 0.143414 3 2 0
1.30332 0.606842 0.14307 3 2 0
1.30094 0.607056 0.142762 3 2 0
1.29856 0.607266 0.142423 3 2 0
1.29618 0.607475 0.142087 3 2 0
1.29381 0.60768 0.141788 3 2 0
1.29144 0.607883 0.141457 3 2 0
1.28907 0.608084 0.14113 3 2 0
1.28671 0.608282 0.140837 3 2 0
1.28435 0.608478 0.140515 3 2 0
1.282 0.608672 0.140196 3 2 0
1.27965 0.608863 0.13991 3 2 0
1.27731 0.609053 0.139595 3 2 0
1.27496 0.60924 0.139283 3 2 0
1.27263 0.609425 0.139004 3 2 0
1.27029 0.609608 0.138697 3 2 0
1.26796 0.609789 0.138392 3 2 0
1.26564 0.609969 0.138119 3 2 0
1.26332 0.610146 0.137818 3 2 0
1.261 0.610322 0.137521 3 2 0
1.25869 0.610496 0.137253 3 2 0
1.25638 0.610668 0.136959 3 2 0
1.25407 0.610838 0.136669 3 2 0
1.25177 0.611008 0.136405 3 2 0
1.24947 0.611174 0.136118 3 2 0
1.24718 0.611339 0.135835 3 2 0
1.24489 0.611504 0.135575 3 2 0
1.2426 0.611666 0.135295 3 2 0
1.24032 0.611827 0.135018 3 2 0
1.23804 0.611987 0.134761 3 2 0
1.23577 0.612145 0.134487 3 2 0
1.2335 0.612301 0.134216 3 2 0
1.23123 0.612457 0.133961 3 2 0
1.22897 0.612611 0.133694 3 2 0
1.22671 0.612763 0.133429 3 2 0
1.22446 0.612915 0.133175 3 2 0
1.2222 0.613064 0.132914 3 2 0
1.21996 0.613213 0.132656 3 2 0
1.21771 0.613361 0.1324 3 2 0
1.21548 0.613507 0.132148 3 2 0
1.21324 0.613652 0.131898 3 2 0
1.21101 0.613792 0.131661 3 2 0
1.20878 0.613935 0.131422 3 2 0
1.20656 0.614077 0.131184 3 2 0
1.20434 0.614207 0.130926 3 2 0
1.20212 0.614346 0.130689 3 2 0
1.19991 0.614483 0.130455 3 2 0
1.1977 0.614603 0.130205 3 2 0
1.19549 0.614738 0.129968 3 2 0
1.19329 0.614872 0.129734 3 2 0
1.1911 0.614998 0.1295 3 2 0
1.1889 0.615129 0.129269 3 2 0
1.18671 0.61526 0.12904 3 2 0
1.18453 0.61537 0.12881 3 2 0
1.18235 0.615499 0.128584 3 2 0
1.18017 0.615626 0.128359 3 2 0
1.17799 0.615733 0.128132 3 2 0
1.17582 0.615858 0.127911 3 2 0
1.17366 0.615983 0.127691 3 2 0
1.17149 0.616101 0.127465 3 2 0
1.16933 0.616224 0.127247 3 2 0
1.16718 0.616346 0.127032 3 2 0
1.16503 0.616454 0.126812 3 2 0
1.16288 0.616574 0.126599 3 2 0
1.16074 0.616694 0.126388 3 2 0
1.15859 0.616784 0.126178 3 2 0
1.15646 0.616902 0.125971 3 2 0
1.15433 0.617019 0.125766 3 2 0
1.1522 0.617118 0.12556 3 2 0
1.15007 0.617233 0.125359 3 2 0
1.14795 0.617348 0.125159 3 2 0
1.14583 0.617454 0.124958 3 2 0
1.14372 0.617567 0.124761 3 2 0
1.14161 0.61768 0.124567 3 2 0
1.1395 0.61779 0.124373 3 2 0
1.1374 0.617902 0.124182 3 2 0
1.1353 0.618013 0.123993 3 2 0
1.1332 0.618128 0.123812 3 2 0
1.13111 0.618238 0.123626 3 2 0
1.12902 0.618347 0.123442 3 2 0
1.12694 0.618469 0.123256 3 2 0
1.12486 0.618577 0.123041 3 2 0
1.12278 0.618685 0.122828 3 2 0
1.1207 0.618817 0.122576 3 2 0
1.11863 0.618924 0.12237 3 2 0
1.11657 0.61903 0.122165 3 2 0
1.11451 0.619187 0.121918 3 2 0
1.11245 0.619294 0.121723 3 2 0
1.11039 0.619399 0.121529 3 2 0
1.10834 0.619515 0.121338 3 2 0
1.10629 0.61962 0.12115 3 2 0
1.10425 0.619724 0.120964 3 2 0
1.10221 0.619853 0.120792 3 2 0
1.10017 0.619957 0.120611 3 2 0
1.09813 0.620061 0.120432 3 2 0
1.0961 0.620225 0.120353 3 2 0
1.09408 0.620328 0.120183 3 2 0
1.09206 0.620432 0.120015 3 2 0
1.09004 0.620522 0.119817 3 2 0
1.08802 0.620625 0.11965 3 2 0
1.08601 0.620727 0.119485 3 2 0
1.084 0.620764 0.119194 3 2 0
1.082 0.620865 0.119025 3 2 0
1.07999 0.620965 0.118858 3 2 0
1.078 0.621108 0.118724 3 2 0
1.076 0.621208 0.118561 3 2 0
1.07401 0.621308 0.1184 3 2 0
1.07203 0.621384 0.118196 3 2 0
1.07004 0.621483 0.118036 3 2 0
1.06806 0.621581 0.117877 3 2 0
1.06609 0.621632 0.117615 3 2 0
1.06411 0.621729 0.117453 3 2 0
1.06214 0.621826 0.117293 3 2 0
1.06018 0.622086 0.117205 3 2 0
1.05822 0.622185 0.117017 3 2 0
1.05626 0.622283 0.11683 3 2 0
1.0543 0.622143 0.116564 3 2 0
1.05235 0.622238 0.116405 3 2 0
1.0504 0.622334 0.116247 3 2 0
1.04846 0.622731 0.116019 3 2 0
1.04652 0.622829 0.11585 3 2 0
1.04458 0.622927 0.115682 3 2 0
1.04265 0.62279 0.11566 3 2 0
1.04072 0.622884 0.11551 3 2 0
1.03879 0.622979 0.115361 3 2 0
1.03686 0.623199 0.11513 3 2 0
1.03494 0.623294 0.114954 3 2 0
1.03303 0.623389 0.11478 3 2 0
1.03111 0.623298 0.114641 3 2 0
1.0292 0.623391 0.114492 3 2 0
1.0273 0.623484 0.114345 3 2 0
1.0254 0.623838 0.114068 3 2 0
1.0235 0.623933 0.113906 3 2 0
1.0216 0.624028 0.113745 3 2 0
1.01971 0.623861 0.113772 3 2 0
1.01782 0.623953 0.113616 3 2 0
1.01593 0.624045 0.113441 3 2 0
1.01405 0.62431 0.113164 3 2 0
1.01217 0.624403 0.113 3 2 0
1.0103 0.624496 0.112838 3 2 0
1.00842 0.624471 0.112781 3 2 0
1.00655 0.624563 0.11264 3 2 0
1.00469 0.624654 0.112501 3 2 0
1.00283 0.625052 0.112239 3 2 0
1.00097 0.625146 0.112096 3 2 0
0.999113 0.62524 0.111953 3 2 0
0.997262 0.624848 0.111907 3 2 0
0.995413 0.624937 0.111771 3 2 0
0.993568 0.625027 0.111637 3 2 0
0.991726 0.62536 0.111336 3 2 0
0.989888 0.625451 0.111178 3 2 0
0.988053 0.625542 0.111022 3 2 0
0.986221 0.625481 0.110995 3 2 0
0.984393 0.625571 0.110831 3 2 0
0.982568 0.625661 0.110669 3 2 0
0.980746 0.625973 0.110406 3 2 0
0.978928 0.626064 0.110258 3 2 0
0.977113 0.626155 0.11011 3 2 0
0.975301 0.626112 0.11001 3 2 0
0.973493 0.626202 0.109858 3 2 0
0.971688 0.626291 0.109706 3 2 0
0.969886 0.626575 0.109535 3 2 0
0.968087 0.626666 0.109394 3 2 0
0.966292 0.626757 0.109255 3 2 0
0.9645 0.626694 0.109115 3 2 0
0.962712 0.626784 0.108969 3 2 0
0.960926 0.626874 0.108825 3 2 0
0.959144 0.627183 0.108714 3 2 0
0.957365 0.627274 0.10858 3 2 0
0.95559 0.627365 0.108448 3 2 0
0.953817 0.627177 0.108291 3 2 0
0.952048 0.627281 0.108145 3 2 0
0.950282 0.627385 0.108001 3 2 0
0.94852 0.627833 0.107947 3 2 0
0.94676 0.627925 0.107821 3 2 0
0.945004 0.628017 0.107695 3 2 0
0.943251 0.627793 0.10746 3 2 0
0.941502 0.627897 0.107317 3 2 0
0.939755 0.628001 0.107176 3 2 0
0.938012 0.628412 0.107131 3 2 0
0.936272 0.628504 0.107007 3 2 0
0.934535 0.628596 0.106885 3 2 0
0.932801 0.62839 0.106629 3 2 0
0.931071 0.628494 0.106491 3 2 0
0.929343 0.628598 0.106354 3 2 0
0.927619 0.629086 0.106363 3 2 0
0.925898 0.629179 0.106216 3 2 0
0.92418 0.629271 0.106069 3 2 0
0.922466 0.628975 0.105823 3 2 0
0.920754 0.629079 0.105689 3 2 0
0.919046 0.629183 0.105555 3 2 0
0.917341 0.629705 0.105532 3 2 0
0.915639 0.629799 0.105389 3 2 0
0.91394 0.629892 0.105247 3 2 0
0.912244 0.629618 0.105038 3 2 0
0.910551 0.629722 0.104906 3 2 0
0.908862 0.629826 0.104775 3 2 0
0.907175 0.630267 0.104719 3 2 0
0.905492 0.63036 0.1046 3 2 0
0.903812 0.630454 0.104482 3 2 0
0.902135 0.630081 0.104261 3 2 0
0.900461 0.630186 0.104135 3 2 0
0.89879 0.630291 0.10401 3 2 0
0.897122 0.630698 0.10398 3 2 0
0.895457 0.63079 0.103865 3 2 0
0.893796 0.630883 0.10375 3 2 0
0.892137 0.630703 0.103532 3 2 0
0.890482 0.630793 0.103413 3 2 0
0.888829 0.630883 0.103295 3 2 0
0.88718 0.631264 0.103287 3 2 0
0.885533 0.631356 0.103176 3 2 0
0.88389 0.631448 0.103066 3 2 0
0.88225 0.631409 0.102891 3 2 0
0.880612 0.6315 0.10278 3 2 0
0.878978 0.631591 0.10267 3 2 0
0.877347 0.631891 0.102527 3 2 0
0.875719 0.631984 0.10239 3 2 0
0.874094 0.632077 0.102255 3 2 0
0.872472 0.631884 0.102117 3 2 0
0.870852 0.631975 0.102006 3 2 0
0.869236 0.632065 0.101896 3 2 0
0.867623 0.632609 0.101781 3 2 0
0.866013 0.632704 0.101647 3 2 0
0.864406 0.632798 0.101515 3 2 0
0.862801 0.632525 0.101421 3 2 0
0.8612 0.632616 0.101313 3 2 0
0.859602 0.632708 0.101206 3 2 0
0.858007 0.633293 0.101076 3 2 0
0.856414 0.633388 0.100943 3 2 0
0.854825 0.633484 0.100812 3 2 0
0.853238 0.633314 0.100817 3 2 0
0.851655 0.633407 0.10068 3 2 0
0.850074 0.6335 0.100544 3 2 0
0.848497 0.633875 0.100234 3 2 0
0.846922 0.633971 0.100119 3 2 0
0.84535 0.634067 0.100005 3 2 0
0.843781 0.63387 0.0999687 3 2 0
0.842215 0.633964 0.0998414 3 2 0
0.840652 0.634057 0.0997152 3 2 0
0.839092 0.634227 0.0997857 3 2 0
0.837535 0.634321 0.0996503 3 2 0
0.83598 0.634415 0.0995161 3 2 0
0.834429 0.6348 0.0992092 3 2 0
0.83288 0.634897 0.0990895 3 2 0
0.831335 0.634993 0.0989707 3 2 0
0.829792 0.63488 0.0988948 3 2 0
0.828252 0.634975 0.0987728 3 2 0
0.826715 0.63507 0.0986518 3 2 0
0.82518 0.63505 0.0987403 3 2 0
0.823649 0.635144 0.0986424 3 2 0
0.82212 0.635238 0.0985359 3 2 0
0.820594 0.635711 0.0981819 3 2 0
0.819071 0.635808 0.098065 3 2 0
0.817551 0.635906 0.0979491 3 2 0
0.816034 0.635714 0.0978957 3 2 0
0.81452 0.635809 0.0977746 3 2 0
0.813008 0.635904 0.0976545 3 2 0
0.811499 0.63597 0.0977352 3 2 0
0.809993 0.636065 0.0976395 3 2 0
0.80849 0.63616 0.0975321 3 2 0
0.806989 0.636577 0.0972292 3 2 0
0.805492 0.636674 0.0971096 3 2 0
0.803997 0.636772 0.096991 3 2 0
0.802505 0.636661 0.0969217 3 2 0
0.801015 0.636757 0.0968012 3 2 0
0.799529 0.636853 0.0966817 3 2 0
0.798045 0.636925 0.0967619 3 2 0
0.796564 0.637021 0.0966332 3 2 0
0.795086 0.637117 0.0965056 3 2 0
0.79361 0.637442 0.0963144 3 2 0
0.792137 0.63754 0.0961924 3 2 0
0.790667 0.637637 0.0960715 3 2 0
0.7892 0.637683 0.0959992 3 2 0
0.787735 0.637781 0.0958774 3 2 0
0.786273 0.637878 0.0957567 3 2 0
0.784814 0.638025 0.0957578 3 2 0
0.783358 0.638123 0.0956327 3 2 0
0.781904 0.638221 0.0955086 3 2 0
0.780453 0.638376 0.0953707 3 2 0
0.779004 0.638474 0.0952496 3 2 0
0.777559 0.638573 0.0951295 3 2 0
0.776116 0.63867 0.0950888 3 2 0
0.774675 0.638769 0.0949664 3 2 0
0.773238 0.638868 0.0948452 3 2 0
0.771803 0.639004 0.0947768 3 2 0
0.77037 0.639103 0.094655 3 2 0
0.76894 0.639203 0.0945341 3 2 0
0.767513 0.639308 0.0944503 3 2 0
0.766089 0.639408 0.0943297 3 2 0
0.764667 0.639507 0.0942101 3 2 0
0.763248 0.639654 0.0941614 3 2 0
0.761832 0.639754 0.0940402 3 2 0
0.760418 0.639854 0.0939201 3 2 0
0.759007 0.639971 0.0938371 3 2 0
0.757598 0.640071 0.0937173 3 2 0
0.756192 0.640171 0.0935984 3 2 0
0.754789 0.640374 0.0935732 3 2 0
0.753388 0.640475 0.0934518 3 2 0
0.75199 0.640577 0.0933315 3 2 0
0.750594 0.640626 0.0931913 3 2 0
0.749201 0.640727 0.0930742 3 2 0
0.747811 0.640828 0.092958 3 2 0
0.746423 0.640854 0.0928927 3 2 0
0.745038 0.640955 0.0927758 3 2 0
0.743655 0.641055 0.0926599 3 2 0
0.742275 0.641104 0.0925719 3 2 0
0.740897 0.641204 0.0924565 3 2 0
0.739522 0.641304 0.092342 3 2 0
0.73815 0.641419 0.0922681 3 2 0
0.73678 0.64152 0.0921533 3 2 0
0.735412 0.64162 0.0920395 3 2 0
0.734047 0.641731 0.0919581 3 2 0
0.732685 0.641832 0.0918445 3 2 0
0.731325 0.641932 0.0917317 3 2 0
0.729968 0.642066 0.0916541 3 2 0
0.728613 0.642167 0.0915412 3 2 0
0.727261 0.642268 0.0914293 3 2 0
0.725911 0.642397 0.0913498 3 2 0
0.724564 0.642498 0.0912379 3 2 0
0.723219 0.642599 0.091127 3 2 0
0.721877 0.642748 0.0910501 3 2 0
0.720537 0.64285 0.0909389 3 2 0
0.719199 0.642952 0.0908287 3 2 0
0.717864 0.643098 0.0907509 3 2 0
0.716532 0.643201 0.0906405 3 2 0
0.715202 0.643303 0.0905311 3 2 0
0.713874 0.643414 0.0904418 3 2 0
0.712549 0.643516 0.090333 3 2 0
0.711227 0.643619 0.0902251 3 2 0
0.709907 0.643769 0.0901413 3 2 0
0.708589 0.643872 0.0900336 3 2 0
0.707273 0.643975 0.0899268 3 2 0
0.705961 0.644117 0.0898393 3 2 0
0.70465 0.644221 0.0897329 3 2 0
0.703342 0.644324 0.0896274 3 2 0
0.702036 0.644578 0.0895238 3 2 0
0.700733 0.644683 0.0894199 3 2 0
0.699432 0.644788 0.0893168 3 2 0
0.698134 0.644714 0.0892512 3 2 0
0.696838 0.644817 0.0891467 3 2 0
0.695544 0.644921 0.0890431 3 2 0
0.694253 0.645039 0.0889365 3 2 0
0.692964 0.645142 0.0888349 3 2 0
0.691677 0.645246 0.088734 3 2 0
0.690393 0.645381 0.0886451 3 2 0
0.689111 0.645485 0.0885446 3 2 0
0.687832 0.645589 0.0884448 3 2 0
0.686555 0.645731 0.0883513 3 2 0
0.68528 0.645836 0.0882525 3 2 0
0.684007 0.64594 0.0881544 3 2 0
0.682737 0.646104 0.0880556 3 2 0
0.681469 0.646209 0.0879592 3 2 0
0.680204 0.646314 0.0878636 3 2 0
0.678941 0.646472 0.0877691 3 2 0
0.67768 0.646578 0.0876747 3 2 0
0.676421 0.646684 0.0875809 3 2 0
0.675165 0.646717 0.0875047 3 2 0
0.673911 0.646822 0.087408 3 2 0
0.67266 0.646927 0.087312 3 2 0
0.67141 0.647203 0.0872189 3 2 0
0.670163 0.647309 0.0871297 3 2 0
0.668919 0.647416 0.0870412 3 2 0
0.667676 0.647356 0.0869474 3 2 0
0.666436 0.647462 0.086852 3 2 0
0.665198 0.647568 0.0867574 3 2 0
0.663962 0.647947 0.0866681 3 2 0
0.662729 0.648055 0.0865799 3 2 0
0.661498 0.648163 0.0864922 3 2 0
0.660269 0.648044 0.086392 3 2 0
0.659042 0.64815 0.0862986 3 2 0
0.657818 0.648257 0.086206 3 2 0
0.656595 0.648929 0.0861932 3 2 0
0.655375 0.649041 0.0861108 3 2 0
0.654158 0.649153 0.0860289 3 2 0
0.652942 0.648698 0.0858421 3 2 0
0.651729 0.648805 0.0857516 3 2 0
0.650518 0.648911 0.0856617 3 2 0
0.649309 0.649391 0.085645 3 2 0
0.648102 0.6495 0.085563 3 2 0
0.646897 0.64961 0.0854815 3 2 0
0.645695 0.649475 0.0853026 3 2 0
0.644495 0.649583 0.0852134 3 2 0
0.643297 0.649691 0.0851248 3 2 0
0.642101 0.650055 0.0850945 3 2 0
0.640907 0.650166 0.0850126 3 2 0
0.639716 0.650276 0.0849311 3 2 0
0.638527 0.650246 0.0847687 3 2 0
0.637339 0.650355 0.0846811 3 2 0
0.636154 0.650464 0.0845941 3 2 0
0.634972 0.650723 0.0845389 3 2 0
0.633791 0.650833 0.0844564 3 2 0
0.632612 0.650944 0.0843743 3 2 0
0.631436 0.65107 0.0842391 3 2 0
0.630261 0.65118 0.0841524 3 2 0
0.629089 0.651291 0.0840664 3 2 0
0.627919 0.651422 0.084001 3 2 0
0.626751 0.651534 0.0839184 3 2 0
0.625585 0.651645 0.0838362 3 2 0
0.624421 0.651794 0.0837177 3 2 0
0.62326 0.651906 0.083633 3 2 0
0.6221 0.652018 0.0835488 3 2 0
0.620943 0.652126 0.0834714 3 2 0
0.619787 0.652238 0.083389 3 2 0
0.618634 0.65235 0.083307 3 2 0
0.617483 0.65248 0.0832093 3 2 0
0.616333 0.652592 0.083127 3 2 0
0.615186 0.652704 0.0830452 3 2 0
0.614041 0.65286 0.08296 3 2 0
0.612898 0.652973 0.0828789 3 2 0
0.611757 0.653086 0.0827983 3 2 0
0.610618 0.653227 0.0827081 3 2 0
0.609481 0.65334 0.0826278 3 2 0
0.608346 0.653453 0.0825479 3 2 0
0.607213 0.653599 0.0824629 3 2 0
0.606083 0.653712 0.0823837 3 2 0
0.604954 0.653826 0.0823049 3 2 0
0.603827 0.653978 0.0822192 3 2 0
0.602702 0.654092 0.0821409 3 2 0
0.601579 0.654206 0.0820631 3 2 0
0.600459 0.654358 0.0819803 3 2 0
0.59934 0.654473 0.0819031 3 2 0
0.598223 0.654588 0.0818263 3 2 0
0.597108 0.654748 0.0817421 3 2 0
0.595996 0.654863 0.0816478 3 2 0
0.594885 0.654978 0.0815543 3 2 0
0.593776 0.655165 0.081437 3 2 0
0.592669 0.655281 0.0813471 3 2 0
0.591564 0.655397 0.0812579 3 2 0
0.590461 0.655482 0.0812117 3 2 0
0.58936 0.655598 0.0811198 3 2 0
0.588261 0.655714 0.0810286 3 2 0
0.587164 0.655905 0.0809107 3 2 0
0.586069 0.656022 0.0808243 3 2 0
0.584975 0.656139 0.0807386 3 2 0
0.583884 0.656276 0.0806782 3 2 0
0.582795 0.656393 0.0805897 3 2 0
0.581707 0.656511 0.0805019 3 2 0
0.580622 0.656763 0.0804043 3 2 0
0.579538 0.656881 0.0803227 3 2 0
0.578456 0.657 0.0802417 3 2 0
0.577377 0.657113 0.080159 3 2 0
0.576299 0.657232 0.0800741 3 2 0
0.575223 0.657351 0.0799897 3 2 0
0.574149 0.657574 0.0799093 3 2 0
0.573076 0.657694 0.0798289 3 2 0
0.572006 0.657815 0.0797489 3 2 0
0.570937 0.657982 0.0796611 3 2 0
0.569871 0.658103 0.0795774 3 2 0
0.568806 0.658225 0.0794943 3 2 0
0.567743 0.65832 0.0794116 3 2 0
0.566682 0.658441 0.0793303 3 2 0
0.565623 0.658563 0.0792495 3 2 0
0.564566 0.658716 0.0791723 3 2 0
0.56351 0.658837 0.0790884 3 2 0
0.562457 0.658959 0.0790051 3 2 0
0.561405 0.658952 0.0789314 3 2 0
0.560355 0.659072 0.0788529 3 2 0
0.559307 0.659193 0.0787749 3 2 0
0.55826 0.659446 0.0787202 3 2 0
0.557216 0.659568 0.0786448 3 2 0
0.556173 0.65969 0.0785697 3 2 0
0.555132 0.659986 0.0784532 3 2 0
0.554093 0.660112 0.0783763 3 2 0
0.553056 0.660237 0.0782998 3 2 0
0.55202 0.660298 0.0782953 3 2 0
0.550986 0.660422 0.0782228 3 2 0
0.549955 0.660547 0.0781507 3 2 0
0.548924 0.660462 0.0780017 3 2 0
0.547896 0.660584 0.0779273 3 2 0
0.546869 0.660706 0.0778534 3 2 0
0.545845 0.660812 0.0777622 3 2 0
0.544821 0.660934 0.077675 3 2 0
0.5438 0.661056 0.0775886 3 2 0
0.542781 0.660765 0.077564 3 2 0
0.541763 0.660883 0.0774919 3 2 0
0.540747 0.661002 0.0774202 3 2 0
0.539732 0.661863 0.0773059 3 2 0
0.53872 0.66199 0.0772334 3 2 0
0.537709 0.662117 0.0771613 3 2 0
0.5367 0.662295 0.0770907 3 2 0
0.535692 0.662423 0.0770013 3 2 0
0.534687 0.662552 0.0769126 3 2 0
0.533683 0.662678 0.0768737 3 2 0
0.53268 0.662809 0.0767879 3 2 0
0.53168 0.66294 0.0766978 3 2 0
0.530681 0.662901 0.0765969 3 2 0
0.529684 0.663034 0.0765252 3 2 0
0.528688 0.663168 0.0764539 3 2 0
0.527694 0.663191 0.0763518 3 2 0
0.526702 0.663325 0.0762651 3 2 0
0.525712 0.66346 0.076179 3 2 0
0.524723 0.663729 0.0760665 3 2 0
0.523736 0.663863 0.0759855 3 2 0
0.522751 0.663997 0.0759051 3 2 0
0.521767 0.664069 0.0758319 3 2 0
0.520785 0.664204 0.0757509 3 2 0
0.519804 0.664338 0.0756704 3 2 0
0.518825 0.664335 0.0755939 3 2 0
0.517848 0.664471 0.0755137 3 2 0
0.516873 0.664607 0.0754341 3 2 0
0.515899 0.664768 0.075358 3 2 0
0.514926 0.664904 0.075279 3 2 0
0.513956 0.66504 0.0752005 3 2 0
0.512987 0.665131 0.0751275 3 2 0
0.512019 0.665267 0.0750484 3 2 0
0.511054 0.665404 0.0749698 3 2 0
0.510089 0.665371 0.0748957 3 2 0
0.509127 0.665509 0.0748167 3 2 0
0.508166 0.665646 0.0747383 3 2 0
0.507206 0.665745 0.0746627 3 2 0
0.506249 0.665883 0.0745858 3 2 0
0.505292 0.666021 0.0745094 3 2 0
0.504338 0.666135 0.0744336 3 2 0
0.503385 0.666274 0.0743576 3 2 0
0.502433 0.666412 0.0742821 3 2 0
0.501483 0.666389 0.0742043 3 2 0
0.500535 0.666528 0.0741285 3 2 0
0.499588 0.666668 0.0740533 3 2 0
0.498643 0.666717 0.0739784 3 2 0
0.497699 0.666857 0.0739038 3 2 0
0.496757 0.666997 0.0738296 3 2 0
0.495816 0.667058 0.0737592 3 2 0
0.494877 0.667199 0.0736859 3 2 0
0.49394 0.66734 0.0736131 3 2 0
0.493004 0.667353 0.0735388 3 2 0
0.492069 0.667494 0.0734664 3 2 0
0.491136 0.667635 0.0733944 3 2 0
0.490205 0.667661 0.0733263 3 2 0
0.489275 0.667803 0.073255 3 2 0
0.488346 0.667944 0.0731842 3 2 0
0.48742 0.667966 0.0731194 3 2 0
0.486494 0.668108 0.0730494 3 2 0
0.48557 0.668251 0.0729797 3 2 0
0.484648 0.668263 0.0729193 3 2 0
0.483727 0.668406 0.0728504 3 2 0
0.482807 0.668549 0.0727819 3 2 0
0.481889 0.668566 0.0727312 3 2 0
0.480973 0.668709 0.0726636 3 2 0
0.480058 0.668853 0.0725963 3 2 0
0.479144 0.66886 0.0724884 3 2 0
0.478232 0.669003 0.0723984 3 2 0
0.477322 0.669147 0.0723092 3 2 0
0.476412 0.669196 0.0721908 3 2 0
0.475505 0.66934 0.0721047 3 2 0
0.474598 0.669485 0.0720195 3 2 0
0.473693 0.669549 0.0719239 3 2 0
0.47279 0.669694 0.071841 3 2 0
0.471888 0.669839 0.0717588 3 2 0
0.470987 0.670094 0.0716654 3 2 0
0.470088 0.670216 0.0715853 3 2 0
0.46919 0.670339 0.0715058 3 2 0
0.468294 0.670479 0.0714072 3 2 0
0.467399 0.670601 0.0713314 3 2 0
0.466506 0.670724 0.0712561 3 2 0
0.465614 0.671044 0.0711781 3 2 0
0.464723 0.671169 0.0711061 3 2 0
0.463834 0.671293 0.0710347 3 2 0
0.462946 0.671385 0.0710193 3 2 0
0.462059 0.671509 0.0709527 3 2 0
0.461174 0.671633 0.0708865 3 2 0
0.46029 0.67214 0.0709451 3 2 0
0.459408 0.672267 0.070858 3 2 0
0.458527 0.672395 0.0707717 3 2 0
0.457647 0.672222 0.070808 3 2 0
0.456769 0.672347 0.0707167 3 2 0
0.455892 0.672472 0.0706263 3 2 0
0.455016 0.673319 0.0703994 3 2 0
0.454142 0.673466 0.0703194 3 2 0
0.453269 0.673613 0.0702401 3 2 0
0.452398 0.673213 0.0704309 3 2 0
0.451527 0.673361 0.070337 3 2 0
0.450659 0.673509 0.0702441 3 2 0
0.449791 0.674718 0.0699175 3 2 0
0.448925 0.674855 0.0698438 3 2 0
0.44806 0.674993 0.0697706 3 2 0
0.447196 0.675264 0.0698191 3 2 0
0.446334 0.675404 0.0697343 3 2 0
0.445473 0.675545 0.0696502 3 2 0
0.444613 0.675693 0.0695502 3 2 0
0.443755 0.675838 0.0694688 3 2 0
0.442898 0.675983 0.0693881 3 2 0
0.442042 0.675972 0.0693372 3 2 0
0.441188 0.676119 0.0692556 3 2 0
0.440334 0.676266 0.0691747 3 2 0
0.439482 0.676237 0.0690637 3 2 0
0.438632 0.676385 0.0689872 3 2 0
0.437782 0.676534 0.0689113 3 2 0
0.436934 0.67641 0.0688455 3 2 0
0.436087 0.67656 0.0687693 3 2 0
0.435242 0.676709 0.0686936 3 2 0
0.434397 0.676372 0.0686247 3 2 0
0.433554 0.676523 0.0685493 3 2 0
0.432713 0.676673 0.0684744 3 2 0
0.431872 0.676834 0.0684008 3 2 0
0.431033 0.676985 0.0683311 3 2 0
0.430194 0.677136 0.0682618 3 2 0
0.429358 0.676711 0.0681836 3 2 0
0.428522 0.676862 0.0681138 3 2 0
0.427687 0.677015 0.0680444 3 2 0
0.426854 0.677426 0.0679743 3 2 0
0.426022 0.677557 0.0679056 3 2 0
0.425191 0.677687 0.0678372 3 2 0
0.424362 0.67835 0.0677821 3 2 0
0.423533 0.678484 0.0677154 3 2 0
0.422706 0.678619 0.0676491 3 2 0
0.42188 0.679278 0.067581 3 2 0
0.421055 0.679417 0.0675152 3 2 0
0.420232 0.679557 0.0674497 3 2 0
0.419409 0.679854 0.0673538 3 2 0
0.418588 0.679996 0.0672803 3 2 0
0.417768 0.680138 0.0672073 3 2 0
0.416949 0.680522 0.0671733 3 2 0
0.416131 0.680671 0.0671023 3 2 0
0.415315 0.68082 0.0670318 3 2 0
0.414499 0.680969 0.0670256 3 2 0
0.413685 0.681118 0.0669618 3 2 0
0.412872 0.681267 0.0668982 3 2 0
0.41206 0.681341 0.0667792 3 2 0
0.411249 0.681493 0.0667148 3 2 0
0.410439 0.681644 0.0666506 3 2 0
0.409631 0.68161 0.066552 3 2 0
0.408823 0.681763 0.0664826 3 2 0
0.408017 0.681917 0.0664137 3 2 0
0.407212 0.682198 0.0663306 3 2 0
0.406408 0.682351 0.0662586 3 2 0
0.405605 0.682503 0.0661869 3 2 0
0.404803 0.682386 0.0661087 3 2 0
0.404002 0.682541 0.0660368 3 2 0
0.403203 0.682696 0.0659655 3 2 0
0.402404 0.682861 0.0659111 3 2 0
0.401607 0.683016 0.0658372 3 2 0
0.40081 0.683172 0.0657639 3 2 0
0.400015 0.682948 0.0656939 3 2 0
0.399221 0.683105 0.0656251 3 2 0
0.398428 0.683262 0.0655567 3 2 0
0.397636 0.683399 0.0654896 3 2 0
0.396845 0.683556 0.0654191 3 2 0
0.396055 0.683714 0.0653491 3 2 0
0.395266 0.683514 0.0652764 3 2 0
0.394479 0.683672 0.0652074 3 2 0
0.393692 0.683831 0.0651389 3 2 0
0.392906 0.683736 0.0650758 3 2 0
0.392122 0.683895 0.065007 3 2 0
0.391338 0.684055 0.0649386 3 2 0
0.390556 0.68386 0.0648914 3 2 0
0.389774 0.68402 0.0648246 3 2 0
0.388994 0.68418 0.064758 3 2 0
0.388214 0.684057 0.0647289 3 2 0
0.387436 0.684189 0.0646642 3 2 0
0.386659 0.68432 0.0645998 3 2 0
0.385882 0.684585 0.0645106 3 2 0
0.385107 0.684718 0.0644457 3 2 0
0.384333 0.684851 0.0643811 3 2 0
0.383559 0.6855 0.0642971 3 2 0
0.382787 0.685637 0.0642321 3 2 0
0.382016 0.685774 0.0641674 3 2 0
0.381245 0.68627 0.0640944 3 2 0
0.380476 0.686409 0.0640297 3 2 0
0.379708 0.686549 0.0639653 3 2 0
0.37894 0.687017 0.0638938 3 2 0
0.378174 0.68716 0.0638294 3 2 0
0.377409 0.687303 0.0637652 3 2 0
0.376644 0.687743 0.0636952 3 2 0
0.375881 0.687889 0.0636311 3 2 0
0.375118 0.688035 0.0635673 3 2 0
0.374357 0.688429 0.0634984 3 2 0
0.373596 0.688578 0.0634347 3 2 0
0.372837 0.688727 0.0633712 3 2 0
0.372078 0.68907 0.0633028 3 2 0
0.37132 0.689222 0.0632311 3 2 0
0.370563 0.689374 0.0631436 3 2 0
0.369808 0.689652 0.0630863 3 2 0
0.369053 0.689807 0.0629991 3 2 0
0.368299 0.689962 0.0629131 3 2 0
0.367546 0.69015 0.0628603 3 2 0
0.366794 0.690308 0.0627743 3 2 0
0.366042 0.690467 0.0626893 3 2 0
0.365292 0.690464 0.0626577 3 2 0
0.364543 0.690625 0.0625717 3 2 0
0.363794 0.690787 0.0624868 3 2 0
0.363047 0.690935 0.0624096 3 2 0
0.3623 0.691097 0.062326 3 2 0
0.361554 0.691259 0.0622434 3 2 0
0.360809 0.691571 0.062004 3 2 0
0.360065 0.691731 0.0619333 3 2 0
0.359322 0.691891 0.0618633 3 2 0
0.35858 0.691656 0.0618003 3 2 0
0.357838 0.691821 0.0617304 3 2 0
0.357098 0.691986 0.0616611 3 2 0
0.356358 0.691794 0.0615986 3 2 0
0.35562 0.691961 0.0615291 3 2 0
0.354882 0.692128 0.0614601 3 2 0
0.354145 0.692817 0.0613813 3 2 0
0.353408 0.692981 0.0613189 3 2 0
0.352673 0.693146 0.0612567 3 2 0
0.351939 0.693158 0.0613107 3 2 0
0.351205 0.693325 0.0612535 3 2 0
0.350472 0.693491 0.0611964 3 2 0
0.34974 0.693167 0.0612051 3 2 0
0.349009 0.693335 0.0611261 3 2 0
0.348278 0.693503 0.061048 3 2 0
0.347549 0.693866 0.0610755 3 2 0
0.34682 0.694034 0.0609919 3 2 0
0.346092 0.694202 0.0609093 3 2 0
0.345365 0.694428 0.0608772 3 2 0
0.344639 0.694596 0.0607934 3 2 0
0.343914 0.694765 0.0607105 3 2 0
0.343189 0.694576 0.0606076 3 2 0
0.342465 0.694746 0.0605279 3 2 0
0.341742 0.694916 0.0604491 3 2 0
0.34102 0.695196 0.0603149 3 2 0
0.340298 0.695366 0.0602426 3 2 0
0.339578 0.695536 0.0601708 3 2 0
0.338858 0.695264 0.0601254 3 2 0
0.338139 0.695435 0.0600598 3 2 0
0.33742 0.695606 0.0599946 3 2 0
0.336703 0.696759 0.0598936 3 2 0
0.335986 0.696927 0.0598289 3 2 0
0.33527 0.697095 0.0597648 3 2 0
0.334554 0.696701 0.059684 3 2 0
0.33384 0.696873 0.0596169 3 2 0
0.333126 0.697044 0.0595502 3 2 0
0.332413 0.697901 0.0594897 3 2 0
0.331701 0.698066 0.0594205 3 2 0
0.330989 0.698231 0.0593518 3 2 0
0.330278 0.697466 0.0592855 3 2 0
0.329568 0.697639 0.0592172 3 2 0
0.328859 0.697812 0.0591494 3 2 0
0.32815 0.698253 0.0590829 3 2 0
0.327442 0.698426 0.0590159 3 2 0
0.326735 0.698599 0.0589493 3 2 0
0.326028 0.698162 0.0588861 3 2 0
0.325322 0.69831 0.0588211 3 2 0
0.324617 0.698459 0.0587564 3 2 0
0.323913 0.699134 0.058688 3 2 0
0.323209 0.699308 0.0586234 3 2 0
0.322506 0.699482 0.0585592 3 2 0
0.321803 0.699678 0.0584933 3 2 0
0.321102 0.699853 0.0584295 3 2 0
0.320401 0.700028 0.0583661 3 2 0
0.3197 0.700363 0.0583021 3 2 0
0.319001 0.700538 0.0582391 3 2 0
0.318302 0.700713 0.0581766 3 2 0
0.317603 0.701397 0.0581469 3 2 0
0.316906 0.701564 0.0580752 3 2 0
0.316209 0.701731 0.058004 3 2 0
0.315512 0.700133 0.0579343 3 2 0
0.314817 0.700278 0.0578637 3 2 0
0.314121 0.700423 0.0577937 3 2 0
0.313427 0.701782 0.0577265 3 2 0
0.312733 0.701939 0.0576575 3 2 0
0.31204 0.702096 0.0575889 3 2 0
0.311348 0.702793 0.0575225 3 2 0
0.310656 0.702958 0.0574562 3 2 0
0.309964 0.703123 0.0573904 3 2 0
0.309274 0.703378 0.0573308 3 2 0
0.308584 0.703552 0.0572666 3 2 0
0.307894 0.703726 0.0572027 3 2 0
0.307206 0.703926 0.0571965 3 2 0
0.306517 0.704095 0.057136 3 2 0
0.30583 0.704263 0.0570756 3 2 0
0.305143 0.704316 0.057014 3 2 0
0.304456 0.704492 0.0569542 3 2 0
0.30377 0.704669 0.0568946 3 2 0
0.303085 0.704379 0.0565185 3 2 0
0.302401 0.704538 0.0564499 3 2 0
0.301717 0.704697 0.0563827 3 2 0
0.301033 0.70371 0.0564158 3 2 0
0.30035 0.703857 0.0563413 3 2 0
0.299668 0.704004 0.0562678 3 2 0
0.298986 0.70529 0.0562443 3 2 0
0.298305 0.705449 0.0561687 3 2 0
0.297624 0.705607 0.0560942 3 2 0
0.296944 0.705968 0.0560354 3 2 0
0.296264 0.706129 0.055961 3 2 0
0.295585 0.70629 0.0558874 3 2 0
0.294907 0.706937 0.0557793 3 2 0
0.294229 0.707106 0.055709 3 2 0
0.293551 0.707275 0.0556394 3 2 0
0.292874 0.707581 0.0555162 3 2 0
0.292198 0.707757 0.0554516 3 2 0
0.291522 0.707933 0.0553876 3 2 0
0.290847 0.707947 0.0553048 3 2 0
0.290172 0.708127 0.0552449 3 2 0
0.289497 0.708307 0.0551853 3 2 0
0.288824 0.708158 0.0551119 3 2 0
0.28815 0.708341 0.0550555 3 2 0
0.287477 0.708524 0.0549994 3 2 0
0.286805 0.708092 0.0549874 3 2 0
0.286133 0.708277 0.0549335 3 2 0
0.285462 0.708462 0.0548797 3 2 0
0.284791 0.707865 0.0548822 3 2 0
0.284121 0.708051 0.0548304 3 2 0
0.283451 0.708238 0.0547786 3 2 0
0.282781 0.708066 0.0549096 3 2 0
0.282112 0.708211 0.0548581 3 2 0
0.281444 0.708356 0.0548066 3 2 0
0.280775 0.709553 0.0545521 3 2 0
0.280107 0.709711 0.0544936 3 2 0
0.27944 0.709869 0.0544354 3 2 0
0.278774 0.709532 0.0545378 3 2 0
0.278108 0.70972 0.0544546 3 2 0
0.277442 0.709908 0.0543727 3 2 0
0.276776 0.710988 0.0543549 3 2 0
0.276111 0.71115 0.0542708 3 2 0
0.275447 0.711311 0.0541879 3 2 0
0.274783 0.711963 0.0541281 3 2 0
0.274119 0.712131 0.054046 3 2 0
0.273456 0.712299 0.053965 3 2 0
0.272793 0.712703 0.0539067 3 2 0
0.27213 0.712875 0.0538263 3 2 0
0.271468 0.713047 0.053747 3 2 0
0.270807 0.713165 0.0536806 3 2 0
0.270145 0.713336 0.0536023 3 2 0
0.269485 0.713507 0.053525 3 2 0
0.268824 0.713499 0.0534508 3 2 0
0.268164 0.713667 0.0533752 3 2 0
0.267504 0.713834 0.0533005 3 2 0
0.266845 0.714214 0.0532287 3 2 0
0.266186 0.714385 0.0531554 3 2 0
0.265527 0.714556 0.053083 3 2 0
0.264869 0.714404 0.0529995 3 2 0
0.264211 0.71457 0.0529302 3 2 0
0.263553 0.714736 0.0528615 3 2 0
0.262896 0.714369 0.0527948 3 2 0
0.262239 0.714528 0.052727 3 2 0
0.261583 0.714687 0.0526598 3 2 0
0.260927 0.715254 0.0526023 3 2 0
0.260271 0.715418 0.0525396 3 2 0
0.259615 0.715581 0.0524773 3 2 0
0.25896 0.716173 0.0524084 3 2 0
0.258305 0.716342 0.0523462 3 2 0
0.257651 0.716511 0.0522842 3 2 0
0.256996 0.716246 0.0522504 3 2 0
0.256342 0.716408 0.0521905 3 2 0
0.255689 0.71657 0.0521309 3 2 0
0.255035 0.717831 0.0520787 3 2 0
0.254382 0.718015 0.0520068 3 2 0
0.25373 0.718199 0.0519357 3 2 0
0.253077 0.718347 0.0518561 3 2 0
0.252425 0.718528 0.051788 3 2 0
0.251773 0.718709 0.0517205 3 2 0
0.251121 0.717931 0.0516595 3 2 0
0.25047 0.718094 0.0515955 3 2 0
0.249819 0.718258 0.051532 3 2 0
0.249168 0.719196 0.0514687 3 2 0
0.248518 0.719387 0.0514058 3 2 0
0.247867 0.719579 0.0513433 3 2 0
0.247217 0.719108 0.0513975 3 2 0
0.246567 0.719303 0.0513391 3 2 0
0.245918 0.719497 0.0512812 3 2 0
0.245268 0.719417 0.0511933 3 2 0
0.244619 0.719579 0.051135 3 2 0
0.24397 0.719741 0.0510768 3 2 0
0.243321 0.72019 0.051023 3 2 0
0.242673 0.720387 0.0509651 3 2 0
0.242025 0.720583 0.0508953 3 2 0
0.241377 0.721184 0.0508466 3 2 0
0.240729 0.721379 0.0507754 3 2 0
0.240081 0.721575 0.0507047 3 2 0
0.239434 0.721385 0.0506345 3 2 0
0.238786 0.721582 0.0505649 3 2 0
0.238139 0.72178 0.0504959 3 2 0
0.237492 0.722821 0.0504293 3 2 0
0.236846 0.723012 0.0503358 3 2 0
0.236199 0.723202 0.0502443 3 2 0
0.235553 0.722958 0.0502092 3 2 0
0.234906 0.723132 0.0501184 3 2 0
0.23426 0.723305 0.0500295 3 2 0
0.233614 0.72334 0.0498004 3 2 0
0.232969 0.723538 0.0497232 3 2 0
0.232323 0.723737 0.0496473 3 2 0
0.231677 0.724352 0.0494385 3 2 0
0.231032 0.724548 0.0493734 3 2 0
0.230387 0.724743 0.0493091 3 2 0
0.229742 0.723281 0.0491687 3 2 0
0.229096 0.723434 0.0491113 3 2 0
0.228452 0.723586 0.0490543 3 2 0
0.227807 0.725063 0.048982 3 2 0
0.227162 0.725234 0.048927 3 2 0
0.226517 0.725405 0.0488722 3 2 0
0.225873 0.725577 0.0487718 3 2 0
0.225228 0.725778 0.0487225 3 2 0
0.224584 0.725978 0.0486732 3 2 0
0.22394 0.72556 0.0486134 3 2 0
0.223295 0.725763 0.0485658 3 2 0
0.222651 0.725966 0.048518 3 2 0
0.222007 0.724835 0.0484675 3 2 0
0.221363 0.72504 0.0484209 3 2 0
0.220719 0.725244 0.0483741 3 2 0
0.220075 0.726482 0.0483293 3 2 0
0.219431 0.726639 0.0482829 3 2 0
0.218787 0.726795 0.0482362 3 2 0
0.218143 0.727628 0.0482055 3 2 0
0.217499 0.727794 0.0481601 3 2 0
0.216856 0.727959 0.0481143 3 2 0
0.216212 0.7278 0.0480897 3 2 0
0.215568 0.727959 0.0480445 3 2 0
0.214924 0.728117 0.0479988 3 2 0
0.21428 0.727974 0.0479807 3 2 0
0.213636 0.728126 0.0479353 3 2 0
0.212992 0.728278 0.0478894 3 2 0
0.212348 0.728151 0.0478752 3 2 0
0.211704 0.728297 0.0478292 3 2 0
0.211061 0.728442 0.0477829 3 2 0
0.210416 0.728259 0.0477738 3 2 0
0.209772 0.728397 0.0477272 3 2 0
0.209128 0.728535 0.0476801 3 2 0
0.208484 0.728927 0.0476722 3 2 0
0.20784 0.729136 0.0476248 3 2 0
0.207195 0.729346 0.0475769 3 2 0
0.206551 0.730065 0.0474901 3 2 0
0.205906 0.730275 0.0473926 3 2 0
0.205262 0.730484 0.0472977 3 2 0
0.204617 0.731626 0.0471824 3 2 0
0.203972 0.731834 0.047093 3 2 0
0.203327 0.732042 0.0470058 3 2 0
0.202682 0.73283 0.0468921 3 2 0
0.202037 0.733033 0.0468101 3 2 0
0.201391 0.733236 0.0467302 3 2 0
0.200746 0.733703 0.0466128 3 2 0
0.2001 0.733898 0.0465379 3 2 0
0.199454 0.734093 0.046465 3 2 0
0.198808 0.73429 0.0463622 3 2 0
0.198162 0.734481 0.0462936 3 2 0
0.197516 0.734672 0.0462265 3 2 0
0.196869 0.734749 0.0461259 3 2 0
0.196222 0.734932 0.0460631 3 2 0
0.195575 0.735114 0.0460017 3 2 0
0.194928 0.735441 0.0459881 3 2 0
0.194281 0.735636 0.0459252 3 2 0
0.193633 0.73583 0.0458633 3 2 0
0.192986 0.734885 0.0458192 3 2 0
0.192338 0.735044 0.0457523 3 2 0
0.191689 0.735203 0.0456862 3 2 0
0.191041 0.735293 0.0456187 3 2 0
0.190392 0.735501 0.0455532 3 2 0
0.189743 0.735709 0.045488 3 2 0
0.189094 0.736216 0.0454283 3 2 0
0.188444 0.736423 0.0453646 3 2 0
0.187794 0.73663 0.0453012 3 2 0
0.187144 0.736713 0.0452439 3 2 0
0.186493 0.73692 0.0451815 3 2 0
0.185842 0.737127 0.0451194 3 2 0
0.185191 0.737077 0.0450644 3 2 0
0.184539 0.737285 0.045003 3 2 0
0.183887 0.737493 0.0449418 3 2 0
0.183235 0.737441 0.044889 3 2 0
0.182582 0.737649 0.0448283 3 2 0
0.181929 0.737857 0.0447676 3 2 0
0.181275 0.738126 0.0447176 3 2 0
0.180621 0.738334 0.0446463 3 2 0
0.179967 0.738542 0.04457 3 2 0
0.179312 0.738743 0.0445004 3 2 0
0.178657 0.738951 0.0444259 3 2 0
0.178001 0.739159 0.0443521 3 2 0
0.177345 0.739352 0.0442844 3 2 0
0.176688 0.73956 0.0442121 3 2 0
0.176031 0.739767 0.0441405 3 2 0
0.175373 0.740073 0.0440744 3 2 0
0.174715 0.74028 0.044004 3 2 0
0.174056 0.740487 0.0439343 3 2 0
0.173397 0.740648 0.0438693 3 2 0
0.172737 0.740855 0.0438006 3 2 0
0.172076 0.741062 0.0437323 3 2 0
0.171415 0.742004 0.0436694 3 2 0
0.170754 0.742204 0.043602 3 2 0
0.170091 0.742404 0.043535 3 2 0
0.169428 0.741808 0.0434709 3 2 0
0.168765 0.742014 0.0434047 3 2 0
0.168101 0.74222 0.0433389 3 2 0
0.167436 0.743438 0.0432755 3 2 0
0.16677 0.743627 0.0432103 3 2 0
0.166104 0.743814 0.0431454 3 2 0
0.165437 0.742837 0.043081 3 2 0
0.164769 0.743043 0.0430169 3 2 0
0.164101 0.743249 0.0429531 3 2 0
0.163431 0.74379 0.0428896 3 2 0
0.162761 0.743939 0.0428263 3 2 0
0.16209 0.744086 0.0427634 3 2 0
0.161419 0.744471 0.0427001 3 2 0
0.160746 0.744621 0.0426377 3 2 0
0.160072 0.744769 0.0425756 3 2 0
0.159398 0.74502 0.0425117 3 2 0
0.158723 0.745168 0.04245 3 2 0
0.158046 0.745314 0.0423885 3 2 0
0.157369 0.746023 0.0423231 3 2 0
0.156691 0.746215 0.042262 3 2 0
0.156012 0.746405 0.0422011 3 2 0
0.155331 0.7442 0.0421325 3 2 0
0.15465 0.744406 0.0420719 3 2 0
0.153968 0.744612 0.0420116 3 2 0
0.153284 0.745494 0.0419423 3 2 0
0.152599 0.745698 0.0418824 3 2 0
0.151914 0.745901 0.0418227 3 2 0
0.151226 0.745047 0.0417556 3 2 0
0.150538 0.745129 0.0416963 3 2 0
0.149849 0.745207 0.041637 3 2 0
0.149158 0.746819 0.0415371 3 2 0
0.148465 0.747019 0.0414154 3 2 0
0.147772 0.747218 0.0413002 3 2 0
0.147077 0.747058 0.0411894 3 2 0
0.14638 0.747153 0.0410827 3 2 0
0.145683 0.747244 0.0409813 3 2 0
0.144983 0.748107 0.0408645 3 2 0
0.144282 0.748302 0.0407686 3 2 0
0.143579 0.748496 0.0406772 3 2 0
0.142875 0.746793 0.0405567 3 2 0
0.142169 0.746991 0.0404711 3 2 0
0.141461 0.747189 0.0403893 3 2 0
0.140752 0.749394 0.040267 3 2 0
0.14004 0.74958 0.0401908 3 2 0
0.139327 0.749766 0.0401177 3 2 0
0.138612 0.750483 0.0399823 3 2 0
0.137894 0.750654 0.0399148 3 2 0
0.137175 0.750824 0.0398497 3 2 0
0.136453 0.751037 0.0397176 3 2 0
0.13573 0.7512 0.0396578 3 2 0
0.135003 0.75136 0.0395997 3 2 0
0.134275 0.751595 0.0394319 3 2 0
0.133544 0.751744 0.0393803 3 2 0
0.13281 0.75189 0.0393298 3 2 0
0.132074 0.751698 0.0391982 3 2 0
0.131335 0.751857 0.0391525 3 2 0
0.130593 0.752014 0.0391072 3 2 0
0.129849 0.751924 0.0389463 3 2 0
0.129101 0.752081 0.0389072 3 2 0
0.12835 0.752235 0.0388679 3 2 0
0.127595 0.752341 0.038702 3 2 0
0.126838 0.752489 0.0386689 3 2 0
0.126076 0.752634 0.0386349 3 2 0
0.125311 0.751837 0.03847 3 2 0
0.124542 0.751992 0.0384421 3 2 0
0.123769 0.752144 0.0384126 3 2 0
0.122992 0.7529 0.0382144 3 2 0
0.12221 0.75303 0.0381933 3 2 0
0.121423 0.753156 0.0381699 3 2 0
0.120631 0.752811 0.0380104 3 2 0
0.119835 0.752938 0.0379926 3 2 0
0.119032 0.753059 0.0379718 3 2 0
0.118224 0.753198 0.037809 3 2 0
0.11741 0.753305 0.0377939 3 2 0
0.116589 0.753405 0.0377752 3 2 0
0.115761 0.754033 0.0375569 3 2 0
0.114926 0.754078 0.0375491 3 2 0
0.114082 0.754111 0.0375367 3 2 0
0.113231 0.753772 0.0373762 3 2 0
0.11237 0.75382 0.0373692 3 2 0
0.111499 0.753853 0.037357 3 2 0
0.110618 0.753897 0.0371487 3 2 0
0.109724 0.753896 0.0371466 3 2 0
0.108818 0.753876 0.0371382 3 2 0
0.107898 0.752339 0.0369215 3 2 0
0.106962 0.75235 0.0369245 3 2 0
0.106009 0.752339 0.0369199 3 2 0
0.105035 0.75197 0.0367018 3 2 0
0.10404 0.751915 0.0367094 3 2 0
0.103018 0.751825 0.0367077 3 2 0
0.101964 0.752178 0.036489 3 2 0
0.100875 0.751963 0.036501 3 2 0
0.0997399 0.751675 0.0365014 3 2 0
0.0985471 0.750927 0.0362193 3 2 0
0.097278 0.750448 0.0362477 3 2 0
0.0958991 0.749772 0.0362594 3 2 0
0.0943428 0.748912 0.0359922 3 2 0
0.0924214 0.746755 0.0360446 3 2 0
nan nan nan 4 2 0
0.0551759 0.077003 0.077003 4 4 0
0.0553569 0.0812952 0.0731083 3 4 0
0.0558331 0.0860483 0.0695436 3 4 0
0.0563079 0.0901203 0.066935 3 4 0
0.0566808 0.093429 0.0650601 3 4 0
0.057007 0.0964756 0.0635074 3 4 0
0.0573215 0.0994729 0.0620774 4 4 0
0.0576852 0.103007 0.0605897 4 4 0
0.0580374 0.106385 0.0592992 4 4 0
0.0583851 0.109666 0.0581513 4 4 0
0.0587308 0.112866 0.0571185 4 4 0
0.0590753 0.116077 0.0561786 4 4 0
0.0594188 0.11924 0.0553352 4 4 0
0.0597615 0.122415 0.0545127 4 4 0
0.0601033 0.125563 0.0537787 4 4 0
0.0604442 0.128718 0.0530746 4 4 0
0.0607843 0.131904 0.0524571 4 4 0
0.0611235 0.135097 0.0518089 4 4 0
0.0614618 0.138271 0.0512241 4 4 0
0.0617993 0.14152 0.050684 4 4 0
0.0621359 0.144794 0.0501909 4 4 0
0.0624717 0.148112 0.0496774 4 4 0
0.0628066 0.151453 0.0491776 4 4 0
0.0631407 0.154834 0.0487271 4 4 0
0.0634739 0.158196 0.0483197 4 4 0
0.0638063 0.161671 0.0478873 4 4 0
0.0641378 0.165202 0.0474677 4 4 0
0.0644686 0.168835 0.047099 4 4 0
0.0647985 0.172482 0.0467395 4 4 0
0.0651275 0.176189 0.0463845 4 4 0
0.0654558 0.179821 0.0460293 4 4 0
0.0657833 0.183646 0.0456925 4 4 0
0.06611 0.187592 0.0453794 4 4 0
0.0664359 0.191694 0.0450745 4 4 0
0.066761 0.195767 0.0447572 4 4 0
0.0670853 0.19991 0.0444628 4 4 0
0.0674089 0.204096 0.0442124 4 4 0
0.0677318 0.208358 0.0439123 4 4 0
0.0680538 0.212678 0.0436344 4 4 0
0.0683752 0.217443 0.0434111 4 4 0
0.0686958 0.22203 0.0431351 4 4 0
0.0690157 0.226682 0.0428757 4 4 0
0.069335 0.231718 0.0426534 4 4 0
0.0696535 0.23666 0.0424281 4 4 0
0.0699714 0.241672 0.0421781 4 4 0
0.0702886 0.247078 0.0419599 4 4 0
0.0706051 0.252393 0.0417563 4 4 0
0.0709209 0.257773 0.0415301 4 4 0
0.0712362 0.263636 0.0413118 4 4 0
0.0715508 0.269589 0.0411196 4 4 0
0.0718648 0.275641 0.0409354 4 4 0
0.0721782 0.281446 0.0407083 4 4 0
0.072491 0.287792 0.040526 4 4 0
0.0728032 0.294635 0.0403515 4 4 0
0.0731147 0.301577 0.0401545 4 4 0
0.0734259 0.308359 0.0399854 4 4 0
0.0737365 0.315183 0.0398233 4 4 0
0.0740464 0.323387 0.0396276 4 4 0
0.074356 0.330907 0.0394671 4 4 0
0.0746651 0.338465 0.0393136 4 4 0
0.0749732 0.346851 0.0391339 4 4 0
0.0752812 0.355775 0.0389769 4 4 0
0.0755887 0.364816 0.0388275 4 4 0
0.0758945 0.373972 0.0386784 4 4 0
0.076201 0.383381 0.0385287 4 4 0
0.076507 0.392805 0.0383868 4 4 0
0.0768106 0.402877 0.0382544 4 4 0
0.0771154 0.413736 0.0381129 4 4 0
0.0774195 0.424615 0.0379793 4 4 0
0.0777196 0.434526 0.0378672 4 4 0
0.0780222 0.446733 0.0377344 4 4 0
0.0783239 0.458901 0.0376094 4 4 0
0.0786206 0.470958 0.0375076 4 4 0
0.0789205 0.483061 0.0373885 4 4 0
0.0792191 0.494865 0.037277 4 4 0
0.0795099 0.508271 0.0371892 4 4 0
0.0798063 0.521145 0.0370853 4 4 0
0.0801011 0.533555 0.0369884 4 4 0
0.0803842 0.546688 0.0369262 4 4 0
0.0806765 0.559046 0.036837 4 4 0
0.0809671 0.570742 0.036754 4 4 0
0.0812486 0.582979 0.0367231 4 4 0
0.0815363 0.595816 0.0366484 4 4 0
0.0818219 0.60786 0.0365794 4 4 0
0.0821006 0.617945 0.0365867 4 4 0
0.0823828 0.628082 0.0365274 4 4 0
0.0826626 0.639339 0.0364735 4 4 0
0.0829346 0.648051 0.0364536 4 4 0
0.0832097 0.658222 0.036406 4 4 0
0.0834821 0.667661 0.03636 4 4 0
0.0837515 0.676507 0.0362025 4 4 0
0.0840191 0.684245 0.0361646 4 4 0
0.0842851 0.691293 0.0361282 4 4 0
0.0845508 0.696077 0.0360339 4 4 0
0.0848199 0.70154 0.0360156 4 4 0
0.0850976 0.707913 0.0360034 4 4 0
0.0853955 0.715056 0.0362271 4 4 0
0.0857255 0.720331 0.0362865 4 4 0
0.0857371 0.720492 0.03629 4 4 0
0.0861363 0.725372 0.0361928 3 4 0
0.0866378 0.729769 0.0361033 3 4 0
0.0873525 0.734062 0.0359812 3 4 0
0.0886899 0.739934 0.0352453 3 4 0
nan nan nan 4 4 0
nan nan nan 4 4 0
nan nan nan 4 4 0
nan nan nan 4 4 0
nan nan nan 4 4 0
nan nan nan 4 4 0
nan nan nan 4 4 0
nan nan nan 4 4 0
nan nan nan 4 4 0
nan nan nan 4 4 0
nan nan nan 4 4 0
nan nan nan 4 4 0
nan nan nan 4 4 0
nan nan nan 4 4 0
nan nan nan 4 4 0
nan nan nan 4 4 0
nan nan nan 4 4 0
nan nan nan 4 4 0
nan nan nan 4 4 0
nan nan nan 4 4 0
nan nan nan 4 4 0
nan nan nan 4 4 0
nan nan nan 4 4 0
1.8 0.380958 0.380958 2 1 0
1.80336 0.381128 0.381128 1 1 0
1.80673 0.381297 0.381297 1 1 0
1.81011 0.381466 0.381466 1 1 0
1.81348 0.381635 0.381635 1 1 0
1.81687 0.381804 0.381804 1 1 0
1.82026 0.381972 0.381972 1 1 0
1.82365 0.382141 0.382141 1 1 0
1.82705 0.38231 0.38231 1 1 0
1.83045 0.382478 0.382478 1 1 0
1.83386 0.382646 0.382646 1 1 0
1.83728 0.382814 0.382814 1 1 0
1.84069 0.382982 0.382982 1 1 0
1.84412 0.38315 0.38315 1 1 0
1.84755 0.383318 0.383318 1 1 0
1.85098 0.383486 0.383486 1 1 0
1.85442 0.383654 0.383654 1 1 0
1.85787 0.383821 0.383821 1 1 0
1.86132 0.383988 0.383988 1 1 0
1.86477 0.384156 0.384156 1 1 0
1.86823 0.384323 0.384323 1 1 0
1.8717 0.38449 0.38449 1 1 0
1.87517 0.384657 0.384657 1 1 0
1.87864 0.384824 0.384824 1 1 0
1.88212 0.38499 0.38499 1 1 0
1.88561 0.385157 0.385157 1 1 0
1.8891 0.385323 0.385323 1 1 0
1.89259 0.38549 0.38549 1 1 0
1.89609 0.385656 0.385656 1 1 0
1.8996 0.385822 0.385822 1 1 0
1.90311 0.385988 0.385988 1 1 0
1.90663 0.386154 0.386154 1 1 0
1.91015 0.38632 0.38632 1 1 0
1.91368 0.386485 0.386485 1 1 0
1.91721 0.386651 0.386651 1 1 0
1.92074 0.386816 0.386816 1 1 0
1.92429 0.386982 0.386982 1 1 0
1.92783 0.387147 0.387147 1 1 0
1.93139 0.387312 0.387312 1 1 0
1.93494 0.387477 0.387477 1 1 0
1.93851 0.387642 0.387642 1 1 0
1.94207 0.387807 0.387807 1 1 0
1.94565 0.387971 0.387971 1 1 0
1.94923 0.388136 0.388136 1 1 0
1.95281 0.3883 0.3883 1 1 0
1.9564 0.388465 0.388465 1 1 0
1.95999 0.388629 0.388629 1 1 0
1.96359 0.388793 0.388793 1 1 0
1.96719 0.388957 0.388957 1 1 0
1.9708 0.389121 0.389121 1 1 0
1.97442 0.389285 0.389285 1 1 0
1.97804 0.389448 0.389448 1 1 0
1.98166 0.389612 0.389612 1 1 0
1.98529 0.389775 0.389775 1 1 0
1.98893 0.389939 0.389939 1 1 0
1.99257 0.390102 0.390102 1 1 0
1.99621 0.390265 0.390265 1 1 0
1.99987 0.390428 0.390428 1 1 0
2.00352 0.390591 0.390591 1 1 0
2.00718 0.390754 0.390754 1 1 0
2.01085 0.390916 0.390916 1 1 0
2.01452 0.391079 0.391079 1 1 0
2.0182 0.391241 0.391241 1 1 0
2.02188 0.391404 0.391404 1 1 0
2.02557 0.391566 0.391566 1 1 0
2.02926 0.391728 0.391728 1 1 0
2.03296 0.39189 0.39189 1 1 0
2.03666 0.392052 0.392052 1 1 0
2.04037 0.392214 0.392214 1 1 0
2.04409 0.392375 0.392375 1 1 0
2.0478 0.392537 0.392537 1 1 0
2.05153 0.392698 0.392698 1 1 0
2.05526 0.39286 0.39286 1 1 0
2.05899 0.393021 0.393021 1 1 0
2.06273 0.393182 0.393182 1 1 0
2.06648 0.393343 0.393343 1 1 0
2.07023 0.393504 0.393504 1 1 0
2.07398 0.393665 0.393665 1 1 0
2.07775 0.393825 0.393825 1 1 0
2.08151 0.393986 0.393986 1 1 0
2.08528 0.394146 0.394146 1 1 0
2.08906 0.394307 0.394307 1 1 0
2.09284 0.394467 0.394467 1 1 0
2.09663 0.394627 0.394627 1 1 0
2.10042 0.394787 0.394787 1 1 0
2.10422 0.394947 0.394947 1 1 0
2.10802 0.395107 0.395107 1 1 0
2.11183 0.395266 0.395266 1 1 0
2.11565 0.395426 0.395426 1 1 0
2.11947 0.395585 0.395585 1 1 0
2.12329 0.395745 0.395745 1 1 0
2.12712 0.395904 0.395904 1 1 0
2.13096 0.396063 0.396063 1 1 0
2.1348 0.396222 0.396222 1 1 0
2.13864 0.396381 0.396381 1 1 0
2.14249 0.39654 0.39654 1 1 0
2.14635 0.396699 0.396699 1 1 0
2.15021 0.396857 0.396857 1 1 0
2.15408 0.397016 0.397016 1 1 0
2.15795 0.397174 0.397174 1 1 0
2.16183 0.397332 0.397332 1 1 0
2.16571 0.39749 0.39749 1 1 0
2.1696 0.397648 0.397648 1 1 0
2.17349 0.397806 0.397806 1 1 0
2.17739 0.397964 0.397964 1 1 0
2.18129 0.398122 0.398122 1 1 0
2.1852 0.39828 0.39828 1 1 0
2.18912 0.398437 0.398437 1 1 0
2.19304 0.398594 0.398594 1 1 0
2.19696 0.398752 0.398752 1 1 0
2.2009 0.398909 0.398909 1 1 0
2.20483 0.399066 0.399066 1 1 0
2.20877 0.399223 0.399223 1 1 0
2.21272 0.39938 0.39938 1 1 0
2.21667 0.399537 0.399537 1 1 0
2.22063 0.399693 0.399693 1 1 0
2.22459 0.39985 0.39985 1 1 0
2.22856 0.400006 0.400006 1 1 0
