0.103809 0.712094 0.712094 1 1 0
0.103597 0.712131 0.712131 1 1 0
0.103386 0.712167 0.712167 1 1 0
0.103175 0.712203 0.712203 1 1 0
0.102963 0.712238 0.712238 1 1 0
0.102752 0.712274 0.712274 1 1 0
0.102541 0.712309 0.712309 1 1 0
0.10233 0.712344 0.712344 1 1 0
0.102119 0.712379 0.712379 1 1 0
0.101908 0.712413 0.712413 1 1 0
0.101697 0.712448 0.712448 1 1 0
0.101486 0.712482 0.712482 1 1 0
0.101275 0.712516 0.712516 1 1 0
0.101065 0.71255 0.71255 1 1 0
0.100854 0.712584 0.712584 1 1 0
0.100644 0.712617 0.712617 1 1 0
0.100433 0.71265 0.71265 1 1 0
0.100223 0.712683 0.712683 1 1 0
0.100012 0.712716 0.712716 1 1 0
0.0998021 0.712749 0.712749 1 1 0
0.0995918 0.712782 0.712782 1 1 0
0.0993817 0.712814 0.712814 1 1 0
0.0991716 0.712846 0.712846 1 1 0
0.0989615 0.712878 0.712878 1 1 0
0.0987516 0.71291 0.71291 1 1 0
0.0985416 0.712941 0.712941 1 1 0
0.0983318 0.712973 0.712973 1 1 0
0.098122 0.713004 0.713004 1 1 0
0.0979123 0.713035 0.713035 1 1 0
0.0977026 0.713065 0.713065 1 1 0
0.097493 0.713096 0.713096 1 1 0
0.0972834 0.713126 0.713126 1 1 0
0.097074 0.713157 0.713157 1 1 0
0.0968645 0.713187 0.713187 1 1 0
0.0966551 0.713217 0.713217 1 1 0
0.0964458 0.713246 0.713246 1 1 0
0.0962366 0.713276 0.713276 1 1 0
0.0962366 0.713276 0.713276 2 1 0
0.0960274 0.713305 0.713305 1 1 0
0.0958182 0.713334 0.713334 1 1 0
0.0956091 0.713363 0.713363 1 1 0
0.0954001 0.713392 0.713392 1 1 0
0.0951911 0.713421 0.713421 1 1 0
0.0949822 0.713449 0.713449 1 1 0
0.0947734 0.713478 0.713478 1 1 0
0.0945645 0.713506 0.713506 1 1 0
0.0943558 0.713534 0.713534 1 1 0
0.0941471 0.713561 0.713561 1 1 0
0.0939385 0.713589 0.713589 1 1 0
0.0937299 0.713616 0.713616 1 1 0
0.0935213 0.713644 0.713644 1 1 0
0.0933128 0.713671 0.713671 1 1 0
0.0931044 0.713698 0.713698 1 1 0
0.092896 0.713724 0.713724 1 1 0
0.0926877 0.713751 0.713751 1 1 0
0.0924794 0.713777 0.713777 1 1 0
0.0922712 0.713803 0.713803 1 1 0
0.092063 0.71383 0.71383 1 1 0
0.0918549 0.713855 0.713855 1 1 0
0.0916468 0.713881 0.713881 1 1 0
0.0914388 0.713907 0.713907 1 1 0
0.0912308 0.713932 0.713932 1 1 0
0.0910229 0.713957 0.713957 1 1 0
0.090815 0.713982 0.713982 1 1 0
0.0906072 0.714007 0.714007 1 1 0
0.0903994 0.714032 0.714032 1 1 0
0.0901917 0.714057 0.714057 1 1 0
0.089984 0.714081 0.714081 1 1 0
0.0897764 0.714105 0.714105 1 1 0
0.0895688 0.71413 0.71413 1 1 0
0.0893612 0.714153 0.714153 1 1 0
0.0891537 0.714177 0.714177 1 1 0
0.0889463 0.714201 0.714201 1 1 0
0.0887389 0.714224 0.714224 1 1 0
0.0885315 0.714248 0.714248 1 1 0
0.0883242 0.714271 0.714271 1 1 0
0.0881169 0.714294 0.714294 1 1 0
0.0879097 0.714317 0.714317 1 1 0
0.0877025 0.71434 0.71434 1 1 0
0.0874954 0.714362 0.714362 1 1 0
0.0872883 0.714385 0.714385 1 1 0
0.0870813 0.714407 0.714407 1 1 0
0.0868743 0.714429 0.714429 1 1 0
0.0866673 0.714451 0.714451 1 1 0
0.0864604 0.714473 0.714473 1 1 0
0.0862535 0.714494 0.714494 1 1 0
0.0860467 0.714516 0.714516 1 1 0
0.0858399 0.714537 0.714537 1 1 0
0.0856331 0.714559 0.714559 1 1 0
0.0854264 0.71458 0.71458 1 1 0
0.0852198 0.714601 0.714601 1 1 0
0.0850131 0.714621 0.714621 1 1 0
0.0848066 0.714642 0.714642 1 1 0
0.0846 0.714663 0.714663 1 1 0
0.0843935 0.714683 0.714683 1 1 0
0.084187 0.714703 0.714703 1 1 0
0.0839806 0.714723 0.714723 1 1 0
0.0837742 0.714743 0.714743 1 1 0
0.0835679 0.714763 0.714763 1 1 0
0.0833616 0.714783 0.714783 1 1 0
0.0831553 0.714802 0.714802 1 1 0
0.082949 0.714822 0.714822 1 1 0
0.0827429 0.714841 0.714841 1 1 0
0.0825367 0.71486 0.71486 1 1 0
0.0823306 0.714879 0.714879 1 1 0
0.0821245 0.714898 0.714898 1 1 0
0.0819184 0.714917 0.714917 1 1 0
0.0817124 0.714935 0.714935 1 1 0
0.0815064 0.714954 0.714954 1 1 0
0.0813005 0.714972 0.714972 1 1 0
0.0810946 0.71499 0.71499 1 1 0
0.0808887 0.715008 0.715008 1 1 0
0.0806829 0.715026 0.715026 1 1 0
0.0804771 0.715044 0.715044 1 1 0
0.0802713 0.715062 0.715062 1 1 0
0.0800656 0.715079 0.715079 1 1 0
0.0798599 0.715097 0.715097 1 1 0
0.0796542 0.715114 0.715114 1 1 0
0.0794486 0.715131 0.715131 1 1 0
0.079243 0.715148 0.715148 1 1 0
0.0790374 0.715165 0.715165 1 1 0
0.0788319 0.715182 0.715182 1 1 0
0.0786264 0.715199 0.715199 1 1 0
0.078421 0.715215 0.715215 1 1 0
0.0782155 0.715231 0.715231 1 1 0
0.0780101 0.715248 0.715248 1 1 0
0.0778047 0.715264 0.715264 1 1 0
0.0775994 0.71528 0.71528 1 1 0
0.0773941 0.715296 0.715296 1 1 0
0.0771888 0.715312 0.715312 1 1 0
0.0769836 0.715327 0.715327 1 1 0
0.0767784 0.715343 0.715343 1 1 0
0.0765732 0.715358 0.715358 1 1 0
0.076368 0.715374 0.715374 1 1 0
0.0761629 0.715389 0.715389 1 1 0
0.0759578 0.715404 0.715404 1 1 0
0.0757527 0.715419 0.715419 1 1 0
0.0755477 0.715434 0.715434 1 1 0
0.0753427 0.715449 0.715449 1 1 0
0.0751377 0.715463 0.715463 1 1 0
0.0749328 0.715478 0.715478 1 1 0
0.0747279 0.715492 0.715492 1 1 0
0.074523 0.715507 0.715507 1 1 0
0.0743181 0.715521 0.715521 1 1 0
0.0741133 0.715535 0.715535 1 1 0
0.0739084 0.715549 0.715549 1 1 0
0.0737037 0.715563 0.715563 1 1 0
0.0734989 0.715576 0.715576 1 1 0
0.0732942 0.71559 0.71559 1 1 0
0.0730895 0.715604 0.715604 1 1 0
0.0728848 0.715617 0.715617 1 1 0
0.0726801 0.71563 0.71563 1 1 0
0.0724755 0.715644 0.715644 1 1 0
0.0722709 0.715657 0.715657 1 1 0
0.0720664 0.71567 0.71567 1 1 0
0.0718618 0.715683 0.715683 1 1 0
0.0716573 0.715695 0.715695 1 1 0
0.0714528 0.715708 0.715708 1 1 0
0.0712483 0.715721 0.715721 1 1 0
0.0710439 0.715733 0.715733 1 1 0
0.0708394 0.715746 0.715746 1 1 0
0.070635 0.715758 0.715758 1 1 0
0.0704307 0.71577 0.71577 1 1 0
0.0702263 0.715782 0.715782 1 1 0
0.070022 0.715794 0.715794 1 1 0
0.0698177 0.715806 0.715806 1 1 0
0.0696134 0.715818 0.715818 1 1 0
0.0694091 0.715829 0.715829 1 1 0
0.0692049 0.715841 0.715841 1 1 0
0.0690007 0.715852 0.715852 1 1 0
0.0687965 0.715864 0.715864 1 1 0
0.0685923 0.715875 0.715875 1 1 0
0.0683882 0.715886 0.715886 1 1 0
0.0681841 0.715897 0.715897 1 1 0
0.06798 0.715908 0.715908 1 1 0
0.0677759 0.715919 0.715919 1 1 0
0.0675718 0.71593 0.71593 1 1 0
0.0673678 0.715941 0.715941 1 1 0
0.0671638 0.715951 0.715951 1 1 0
0.0669598 0.715962 0.715962 1 1 0
0.0667558 0.715972 0.715972 1 1 0
0.0665518 0.715983 0.715983 1 1 0
0.0663479 0.715993 0.715993 1 1 0
0.066144 0.716003 0.716003 1 1 0
0.0659401 0.716013 0.716013 1 1 0
0.0657362 0.716023 0.716023 1 1 0
0.0655324 0.716033 0.716033 1 1 0
0.0653285 0.716043 0.716043 1 1 0
0.0651247 0.716053 0.716053 1 1 0
0.0649209 0.716062 0.716062 1 1 0
0.0647171 0.716072 0.716072 1 1 0
0.0645134 0.716082 0.716082 1 1 0
0.0643096 0.716091 0.716091 1 1 0
0.0641059 0.7161 0.7161 1 1 0
0.0639022 0.716109 0.716109 1 1 0
0.0636985 0.716119 0.716119 1 1 0
0.0634948 0.716128 0.716128 1 1 0
0.0632912 0.716137 0.716137 1 1 0
0.0630875 0.716146 0.716146 1 1 0
0.0628839 0.716154 0.716154 1 1 0
0.0626803 0.716163 0.716163 1 1 0
0.0624767 0.716172 0.716172 1 1 0
0.0622732 0.71618 0.71618 1 1 0
0.0620696 0.716189 0.716189 1 1 0
0.0618661 0.716197 0.716197 1 1 0
0.0616626 0.716206 0.716206 1 1 0
0.0614591 0.716214 0.716214 1 1 0
0.0612556 0.716222 0.716222 1 1 0
0.0610521 0.71623 0.71623 1 1 0
0.0608487 0.716238 0.716238 1 1 0
0.0606453 0.716246 0.716246 1 1 0
0.0604418 0.716254 0.716254 1 1 0
0.0602384 0.716262 0.716262 1 1 0
0.060035 0.716269 0.716269 1 1 0
0.0598317 0.716277 0.716277 1 1 0
0.0596283 0.716285 0.716285 1 1 0
0.059425 0.716292 0.716292 1 1 0
0.0592216 0.7163 0.7163 1 1 0
0.0590183 0.716307 0.716307 1 1 0
0.058815 0.716314 0.716314 1 1 0
0.0586117 0.716321 0.716321 1 1 0
0.0584085 0.716329 0.716329 1 1 0
0.0582052 0.716336 0.716336 1 1 0
0.058002 0.716343 0.716343 1 1 0
0.0577988 0.71635 0.71635 1 1 0
0.0575955 0.716356 0.716356 1 1 0
0.0573923 0.716363 0.716363 1 1 0
0.0571891 0.71637 0.71637 1 1 0
0.056986 0.716377 0.716377 1 1 0
0.0567828 0.716383 0.716383 1 1 0
0.0565797 0.71639 0.71639 1 1 0
0.0563765 0.716396 0.716396 1 1 0
0.0561734 0.716403 0.716403 1 1 0
0.0559703 0.716409 0.716409 1 1 0
0.0557672 0.716415 0.716415 1 1 0
0.0555641 0.716421 0.716421 1 1 0
0.055361 0.716427 0.716427 1 1 0
0.055158 0.716433 0.716433 1 1 0
0.0549549 0.716439 0.716439 1 1 0
0.0547519 0.716445 0.716445 1 1 0
0.0545489 0.716451 0.716451 1 1 0
0.0543459 0.716457 0.716457 1 1 0
0.0541429 0.716463 0.716463 1 1 0
0.0539399 0.716469 0.716469 1 1 0
0.0537369 0.716474 0.716474 1 1 0
0.0535339 0.71648 0.71648 1 1 0
0.053331 0.716485 0.716485 1 1 0
0.053128 0.716491 0.716491 1 1 0
0.0529251 0.716496 0.716496 1 1 0
0.0527222 0.716501 0.716501 1 1 0
0.0525193 0.716507 0.716507 1 1 0
0.0523163 0.716512 0.716512 1 1 0
0.0521135 0.716517 0.716517 1 1 0
0.0519106 0.716522 0.716522 1 1 0
0.0517077 0.716527 0.716527 1 1 0
0.0515048 0.716532 0.716532 1 1 0
0.051302 0.716537 0.716537 1 1 0
0.0510991 0.716542 0.716542 1 1 0
0.0508963 0.716547 0.716547 1 1 0
0.0506935 0.716552 0.716552 1 1 0
0.0504907 0.716556 0.716556 1 1 0
0.0502879 0.716561 0.716561 1 1 0
0.0500851 0.716566 0.716566 1 1 0
0.0498823 0.71657 0.71657 1 1 0
0.0496795 0.716575 0.716575 1 1 0
0.0494768 0.716579 0.716579 1 1 0
0.049274 0.716584 0.716584 1 1 0
0.0490712 0.716588 0.716588 1 1 0
0.0488685 0.716592 0.716592 1 1 0
0.0486658 0.716597 0.716597 1 1 0
0.0484631 0.716601 0.716601 1 1 0
0.0482603 0.716605 0.716605 1 1 0
0.0480576 0.716609 0.716609 1 1 0
0.0478549 0.716613 0.716613 1 1 0
0.0476522 0.716617 0.716617 1 1 0
0.0474496 0.716621 0.716621 1 1 0
0.0472469 0.716625 0.716625 1 1 0
0.0470442 0.716629 0.716629 1 1 0
0.0468416 0.716633 0.716633 1 1 0
0.0466389 0.716636 0.716636 1 1 0
0.0464363 0.71664 0.71664 1 1 0
0.0462336 0.716644 0.716644 1 1 0
0.046031 0.716647 0.716647 1 1 0
0.0458284 0.716651 0.716651 1 1 0
0.0456258 0.716655 0.716655 1 1 0
0.0454232 0.716658 0.716658 1 1 0
0.0452206 0.716662 0.716662 1 1 0
0.045018 0.716665 0.716665 1 1 0
0.0448154 0.716668 0.716668 1 1 0
0.0446128 0.716672 0.716672 1 1 0
0.0444102 0.716675 0.716675 1 1 0
0.0442077 0.716678 0.716678 1 1 0
0.0440051 0.716681 0.716681 1 1 0
0.0438026 0.716684 0.716684 1 1 0
0.0436 0.716688 0.716688 1 1 0
0.0433975 0.716691 0.716691 1 1 0
0.0431949 0.716694 0.716694 1 1 0
0.0429924 0.716697 0.716697 1 1 0
0.0427899 0.7167 0.7167 1 1 0
0.0425874 0.716703 0.716703 1 1 0
0.0423849 0.716705 0.716705 1 1 0
0.0421824 0.716708 0.716708 1 1 0
0.0419799 0.716711 0.716711 1 1 0
0.0417774 0.716714 0.716714 1 1 0
0.0415749 0.716717 0.716717 1 1 0
0.0413724 0.716719 0.716719 1 1 0
0.0411699 0.716722 0.716722 1 1 0
0.0409675 0.716725 0.716725 1 1 0
0.040765 0.716727 0.716727 1 1 0
0.0405625 0.71673 0.71673 1 1 0
0.0403601 0.716732 0.716732 1 1 0
0.0401576 0.716735 0.716735 1 1 0
0.0399552 0.716737 0.716737 1 1 0
0.0397528 0.71674 0.71674 1 1 0
0.0395503 0.716742 0.716742 1 1 0
0.0393479 0.716744 0.716744 1 1 0
0.0391455 0.716747 0.716747 1 1 0
0.038943 0.716749 0.716749 1 1 0
0.0387406 0.716751 0.716751 1 1 0
0.0385382 0.716753 0.716753 1 1 0
0.0383358 0.716755 0.716755 1 1 0
0.0381334 0.716758 0.716758 1 1 0
0.037931 0.71676 0.71676 1 1 0
0.0377286 0.716762 0.716762 1 1 0
0.0375262 0.716764 0.716764 1 1 0
0.0373239 0.716766 0.716766 1 1 0
0.0371215 0.716768 0.716768 1 1 0
0.0369191 0.71677 0.71677 1 1 0
0.0367167 0.716772 0.716772 1 1 0
0.0365144 0.716774 0.716774 1 1 0
0.036312 0.716775 0.716775 1 1 0
0.0361096 0.716777 0.716777 1 1 0
0.0359073 0.716779 0.716779 1 1 0
0.0357049 0.716781 0.716781 1 1 0
0.0355026 0.716783 0.716783 1 1 0
0.0353002 0.716784 0.716784 1 1 0
0.0350979 0.716786 0.716786 1 1 0
0.0348956 0.716788 0.716788 1 1 0
0.0346932 0.716789 0.716789 1 1 0
0.0344909 0.716791 0.716791 1 1 0
0.0342886 0.716793 0.716793 1 1 0
0.0340862 0.716794 0.716794 1 1 0
0.0338839 0.716796 0.716796 1 1 0
0.0336816 0.716797 0.716797 1 1 0
0.0334793 0.716799 0.716799 1 1 0
0.033277 0.7168 0.7168 1 1 0
0.0330747 0.716802 0.716802 1 1 0
0.0328724 0.716803 0.716803 1 1 0
0.0326701 0.716804 0.716804 1 1 0
0.0324678 0.716806 0.716806 1 1 0
0.0322655 0.716807 0.716807 1 1 0
0.0320632 0.716808 0.716808 1 1 0
0.0318609 0.71681 0.71681 1 1 0
0.0316586 0.716811 0.716811 1 1 0
0.0314563 0.716812 0.716812 1 1 0
0.031254 0.716814 0.716814 1 1 0
0.0310517 0.716815 0.716815 1 1 0
0.0308495 0.716816 0.716816 1 1 0
0.0306472 0.716817 0.716817 1 1 0
0.0304449 0.716818 0.716818 1 1 0
0.0302426 0.716819 0.716819 1 1 0
0.0300404 0.71682 0.71682 1 1 0
0.0298381 0.716822 0.716822 1 1 0
0.0296359 0.716823 0.716823 1 1 0
0.0294336 0.716824 0.716824 1 1 0
0.0292313 0.716825 0.716825 1 1 0
0.0290291 0.716826 0.716826 1 1 0
0.0288268 0.716827 0.716827 1 1 0
0.0286246 0.716828 0.716828 1 1 0
0.0284223 0.716829 0.716829 1 1 0
0.0282201 0.71683 0.71683 1 1 0
0.0280178 0.71683 0.71683 1 1 0
0.0278156 0.716831 0.716831 1 1 0
0.0276133 0.716832 0.716832 1 1 0
0.0274111 0.716833 0.716833 1 1 0
0.0272089 0.716834 0.716834 1 1 0
0.0270066 0.716835 0.716835 1 1 0
0.0268044 0.716836 0.716836 1 1 0
0.0266022 0.716836 0.716836 1 1 0
0.0263999 0.716837 0.716837 1 1 0
0.0261977 0.716838 0.716838 1 1 0
0.0259955 0.716839 0.716839 1 1 0
0.0257932 0.716839 0.716839 1 1 0
0.025591 0.71684 0.71684 1 1 0
0.0253888 0.716841 0.716841 1 1 0
0.0251866 0.716842 0.716842 1 1 0
0.0249843 0.716842 0.716842 1 1 0
0.0247821 0.716843 0.716843 1 1 0
0.0245799 0.716843 0.716843 1 1 0
0.0243777 0.716844 0.716844 1 1 0
0.0241755 0.716845 0.716845 1 1 0
0.0239733 0.716845 0.716845 1 1 0
0.0237711 0.716846 0.716846 1 1 0
0.0235688 0.716846 0.716846 1 1 0
0.0233666 0.716847 0.716847 1 1 0
0.0231644 0.716848 0.716848 1 1 0
0.0229622 0.716848 0.716848 1 1 0
0.02276 0.716849 0.716849 1 1 0
0.0225578 0.716849 0.716849 1 1 0
0.0223556 0.71685 0.71685 1 1 0
0.0221534 0.71685 0.71685 1 1 0
0.0219512 0.716851 0.716851 1 1 0
0.021749 0.716851 0.716851 1 1 0
0.0215468 0.716852 0.716852 1 1 0
0.0213446 0.716852 0.716852 1 1 0
0.0211424 0.716852 0.716852 1 1 0
0.0209402 0.716853 0.716853 1 1 0
0.020738 0.716853 0.716853 1 1 0
0.0205358 0.716854 0.716854 1 1 0
0.0203336 0.716854 0.716854 1 1 0
0.0201314 0.716854 0.716854 1 1 0
0.0199292 0.716855 0.716855 1 1 0
0.0197271 0.716855 0.716855 1 1 0
0.0195249 0.716855 0.716855 1 1 0
0.0193227 0.716856 0.716856 1 1 0
0.0191205 0.716856 0.716856 1 1 0
0.0189183 0.716856 0.716856 1 1 0
0.0187161 0.716857 0.716857 1 1 0
0.0185139 0.716857 0.716857 1 1 0
0.0183117 0.716857 0.716857 1 1 0
0.0181096 0.716858 0.716858 1 1 0
0.0179074 0.716858 0.716858 1 1 0
0.0177052 0.716858 0.716858 1 1 0
0.017503 0.716858 0.716858 1 1 0
0.0173008 0.716859 0.716859 1 1 0
0.0170986 0.716859 0.716859 1 1 0
0.0168965 0.716859 0.716859 1 1 0
0.0166943 0.716859 0.716859 1 1 0
0.0164921 0.71686 0.71686 1 1 0
0.0162899 0.71686 0.71686 1 1 0
0.0160877 0.71686 0.71686 1 1 0
0.0158856 0.71686 0.71686 1 1 0
0.0156834 0.71686 0.71686 1 1 0
0.0154812 0.716861 0.716861 1 1 0
0.015279 0.716861 0.716861 1 1 0
0.0150768 0.716861 0.716861 1 1 0
0.0148747 0.716861 0.716861 1 1 0
0.0146725 0.716861 0.716861 1 1 0
0.0144703 0.716861 0.716861 1 1 0
0.0142681 0.716862 0.716862 1 1 0
0.014066 0.716862 0.716862 1 1 0
0.0138638 0.716862 0.716862 1 1 0
0.0136616 0.716862 0.716862 1 1 0
0.0134594 0.716862 0.716862 1 1 0
0.0132573 0.716862 0.716862 1 1 0
0.0130551 0.716862 0.716862 1 1 0
0.0128529 0.716863 0.716863 1 1 0
0.0126508 0.716863 0.716863 1 1 0
0.0124486 0.716863 0.716863 1 1 0
0.0122464 0.716863 0.716863 1 1 0
0.0120442 0.716863 0.716863 1 1 0
0.0118421 0.716863 0.716863 1 1 0
0.0116399 0.716863 0.716863 1 1 0
0.0114377 0.716863 0.716863 1 1 0
0.0112356 0.716863 0.716863 1 1 0
0.0110334 0.716863 0.716863 1 1 0
0.0108312 0.716864 0.716864 1 1 0
0.010629 0.716864 0.716864 1 1 0
0.0104269 0.716864 0.716864 1 1 0
0.0102247 0.716864 0.716864 1 1 0
0.0100225 0.716864 0.716864 1 1 0
0.00982037 0.716864 0.716864 1 1 0
0.0096182 0.716864 0.716864 1 1 0
0.00941603 0.716864 0.716864 1 1 0
0.00921386 0.716864 0.716864 1 1 0
0.00901169 0.716864 0.716864 1 1 0
0.00880952 0.716864 0.716864 1 1 0
0.00860735 0.716864 0.716864 1 1 0
0.00840518 0.716864 0.716864 1 1 0
0.00820302 0.716864 0.716864 1 1 0
0.00800085 0.716864 0.716864 1 1 0
0.00779868 0.716864 0.716864 1 1 0
0.00759651 0.716864 0.716864 1 1 0
0.00739434 0.716864 0.716864 1 1 0
0.00719218 0.716864 0.716864 1 1 0
0.00699001 0.716864 0.716864 1 1 0
0.00678784 0.716865 0.716865 1 1 0
0.00658567 0.716865 0.716865 1 1 0
0.00638351 0.716865 0.716865 1 1 0
0.00618134 0.716865 0.716865 1 1 0
0.00597917 0.716865 0.716865 1 1 0
0.00577701 0.716865 0.716865 1 1 0
0.00557484 0.716865 0.716865 1 1 0
0.00537267 0.716865 0.716865 1 1 0
0.0051705 0.716865 0.716865 1 1 0
0.00496834 0.716865 0.716865 1 1 0
0.00476617 0.716865 0.716865 1 1 0
0.004564 0.716865 0.716865 1 1 0
0.00436184 0.716865 0.716865 1 1 0
0.00415967 0.716865 0.716865 1 1 0
0.0039575 0.716865 0.716865 1 1 0
0.00375534 0.716865 0.716865 1 1 0
0.00355317 0.716865 0.716865 1 1 0
0.003351 0.716865 0.716865 1 1 0
0.00314884 0.716865 0.716865 1 1 0
0.00294667 0.716865 0.716865 1 1 0
0.0027445 0.716865 0.716865 1 1 0
0.00254234 0.716865 0.716865 1 1 0
0.00234017 0.716865 0.716865 1 1 0
0.002138 0.716865 0.716865 1 1 0
0.00193584 0.716865 0.716865 1 1 0
0.00173367 0.716865 0.716865 1 1 0
0.00153151 0.716865 0.716865 1 1 0
0.00132934 0.716865 0.716865 1 1 0
0.00112717 0.716865 0.716865 1 1 0
0.000925006 0.716865 0.716865 1 1 0
0.00072284 0.716865 0.716865 1 1 0
0.000520673 0.716865 0.716865 1 1 0
0.000318507 0.716865 0.716865 1 1 0
0.000116341 0.716865 0.716865 1 1 0
-8.58257e-05 0.716865 0.716865 1 1 0
0.7 0.425459 0.425459 2 1 0
0.701174 0.425081 0.425081 1 1 0
0.70235 0.424702 0.424702 1 1 0
0.703528 0.424323 0.424323 1 1 0
0.704706 0.423945 0.423945 1 1 0
0.705887 0.423566 0.423566 1 1 0
0.707068 0.423188 0.423188 1 1 0
0.708252 0.42281 0.42281 1 1 0
0.709436 0.422432 0.422432 1 1 0
0.710622 0.422054 0.422054 1 1 0
0.71181 0.421677 0.421677 1 1 0
0.712999 0.421299 0.421299 1 1 0
0.714189 0.420922 0.420922 1 1 0
0.715381 0.420545 0.420545 1 1 0
0.716574 0.420167 0.420167 1 1 0
0.717769 0.419791 0.419791 1 1 0
0.718965 0.419414 0.419414 1 1 0
0.720163 0.419037 0.419037 1 1 0
0.721362 0.418661 0.418661 1 1 0
0.722562 0.418284 0.418284 1 1 0
0.723764 0.417908 0.417908 1 1 0
0.724968 0.417532 0.417532 1 1 0
0.726172 0.417156 0.417156 1 1 0
0.727379 0.41678 0.41678 1 1 0
0.728586 0.416405 0.416405 1 1 0
0.729795 0.416029 0.416029 1 1 0
0.731006 0.415654 0.415654 1 1 0
0.732218 0.415279 0.415279 1 1 0
0.733431 0.414904 0.414904 1 1 0
0.734646 0.414529 0.414529 1 1 0
0.735862 0.414155 0.414155 1 1 0
0.73708 0.41378 0.41378 1 1 0
0.738299 0.413406 0.413406 1 1 0
0.739519 0.413032 0.413032 1 1 0
0.740741 0.412658 0.412658 1 1 0
0.741964 0.412284 0.412284 1 1 0
0.743189 0.41191 0.41191 1 1 0
0.744415 0.411536 0.411536 1 1 0
0.745643 0.411163 0.411163 1 1 0
0.746872 0.41079 0.41079 1 1 0
0.748102 0.410417 0.410417 1 1 0
0.749334 0.410044 0.410044 1 1 0
0.750567 0.409671 0.409671 1 1 0
0.751801 0.409299 0.409299 1 1 0
0.753037 0.408926 0.408926 1 1 0
0.754274 0.408554 0.408554 1 1 0
0.755513 0.408182 0.408182 1 1 0
0.756753 0.40781 0.40781 1 1 0
0.757995 0.407439 0.407439 1 1 0
0.759238 0.407067 0.407067 1 1 0
0.760482 0.406696 0.406696 1 1 0
0.761728 0.406325 0.406325 1 1 0
0.762975 0.405954 0.405954 1 1 0
0.764223 0.405583 0.405583 1 1 0
0.765473 0.405212 0.405212 1 1 0
0.766724 0.404842 0.404842 1 1 0
0.767977 0.404471 0.404471 1 1 0
0.76923 0.404101 0.404101 1 1 0
0.770486 0.403731 0.403731 1 1 0
0.771742 0.403362 0.403362 1 1 0
0.773001 0.402992 0.402992 1 1 0
0.77426 0.402623 0.402623 1 1 0
0.775521 0.402253 0.402253 1 1 0
0.776783 0.401884 0.401884 1 1 0
0.778046 0.401515 0.401515 1 1 0
0.779311 0.401147 0.401147 1 1 0
0.780578 0.400778 0.400778 1 1 0
0.781845 0.40041 0.40041 1 1 0
0.783114 0.400042 0.400042 1 1 0
0.784384 0.399674 0.399674 1 1 0
0.785656 0.399306 0.399306 1 1 0
0.786929 0.398939 0.398939 1 1 0
0.788203 0.398571 0.398571 1 1 0
0.789479 0.398204 0.398204 1 1 0
0.790756 0.397837 0.397837 1 1 0
0.792035 0.39747 0.39747 1 1 0
0.793314 0.397104 0.397104 1 1 0
0.794596 0.396737 0.396737 1 1 0
0.795878 0.396371 0.396371 1 1 0
0.797162 0.396005 0.396005 1 1 0
0.798447 0.395639 0.395639 1 1 0
0.799733 0.395273 0.395273 1 1 0
0.801021 0.394908 0.394908 1 1 0
0.80231 0.394543 0.394543 1 1 0
0.803601 0.394178 0.394178 1 1 0
0.804892 0.393813 0.393813 1 1 0
0.806185 0.393448 0.393448 1 1 0
0.80748 0.393084 0.393084 1 1 0
0.808776 0.392719 0.392719 1 1 0
0.810073 0.392355 0.392355 1 1 0
0.811371 0.391991 0.391991 1 1 0
0.812671 0.391628 0.391628 1 1 0
0.813972 0.391264 0.391264 1 1 0
0.815274 0.390901 0.390901 1 1 0
0.816578 0.390538 0.390538 1 1 0
0.817883 0.390175 0.390175 1 1 0
0.819189 0.389812 0.389812 1 1 0
0.820496 0.38945 0.38945 1 1 0
0.821805 0.389087 0.389087 1 1 0
0.823115 0.388725 0.388725 1 1 0
0.824427 0.388363 0.388363 1 1 0
0.82574 0.388002 0.388002 1 1 0
0.827054 0.38764 0.38764 1 1 0
0.828369 0.387279 0.387279 1 1 0
0.829686 0.386918 0.386918 1 1 0
0.831004 0.386557 0.386557 1 1 0
0.832323 0.386196 0.386196 1 1 0
0.833643 0.385836 0.385836 1 1 0
0.834965 0.385476 0.385476 1 1 0
0.836288 0.385116 0.385116 1 1 0
0.837612 0.384756 0.384756 1 1 0
0.838938 0.384396 0.384396 1 1 0
0.840265 0.384037 0.384037 1 1 0
0.841593 0.383678 0.383678 1 1 0
0.842923 0.383319 0.383319 1 1 0
0.844253 0.38296 0.38296 1 1 0
0.845585 0.382602 0.382602 1 1 0
0.846919 0.382243 0.382243 1 1 0
0.848253 0.381885 0.381885 1 1 0
0.849589 0.381527 0.381527 1 1 0
0.850926 0.38117 0.38117 1 1 0
0.852264 0.380812 0.380812 1 1 0
0.853604 0.380455 0.380455 1 1 0
0.854945 0.380098 0.380098 1 1 0
0.856287 0.379741 0.379741 1 1 0
0.85763 0.379385 0.379385 1 1 0
0.858974 0.379028 0.379028 1 1 0
0.86032 0.378672 0.378672 1 1 0
0.861667 0.378316 0.378316 1 1 0
0.863016 0.377961 0.377961 1 1 0
0.864365 0.377605 0.377605 1 1 0
0.865716 0.37725 0.37725 1 1 0
0.867068 0.376895 0.376895 1 1 0
0.868421 0.37654 0.37654 1 1 0
0.869776 0.376185 0.376185 1 1 0
0.871131 0.375831 0.375831 1 1 0
0.872488 0.375477 0.375477 1 1 0
0.873847 0.375123 0.375123 1 1 0
0.875206 0.374769 0.374769 1 1 0
0.876567 0.374416 0.374416 1 1 0
0.877928 0.374063 0.374063 1 1 0
0.879292 0.373709 0.373709 1 1 0
0.880656 0.373357 0.373357 1 1 0
0.882021 0.373004 0.373004 1 1 0
0.883388 0.372652 0.372652 1 1 0
0.884756 0.3723 0.3723 1 1 0
0.886125 0.371948 0.371948 1 1 0
0.887495 0.371596 0.371596 1 1 0
0.888867 0.371245 0.371245 1 1 0
0.89024 0.370894 0.370894 1 1 0
0.891614 0.370543 0.370543 1 1 0
0.892534 0.370308 0.370308 1 1 0
0.89391 0.369957 0.369957 2 1 0
0.895287 0.369607 0.369607 2 1 0
0.896665 0.369257 0.369257 2 1 0
0.898045 0.368907 0.368907 2 1 0
0.899425 0.368557 0.368557 2 1 0
0.900807 0.368208 0.368208 2 1 0
0.90219 0.367859 0.367859 2 1 0
0.903575 0.36751 0.36751 2 1 0
0.90496 0.367161 0.367161 2 1 0
0.906347 0.366813 0.366813 2 1 0
0.907735 0.366464 0.366464 2 1 0
0.909124 0.366116 0.366116 2 1 0
0.910514 0.365769 0.365769 2 1 0
0.911905 0.365421 0.365421 2 1 0
0.913298 0.365074 0.365074 2 1 0
0.914691 0.364727 0.364727 2 1 0
0.916086 0.36438 0.36438 2 1 0
0.917482 0.364033 0.364033 2 1 0
0.918879 0.363687 0.363687 2 1 0
0.920278 0.363341 0.363341 2 1 0
0.921677 0.362995 0.362995 2 1 0
0.923078 0.362649 0.362649 2 1 0
0.92448 0.362304 0.362304 2 1 0
0.925882 0.361959 0.361959 2 1 0
0.927287 0.361614 0.361614 2 1 0
0.928692 0.361269 0.361269 2 1 0
0.930098 0.360925 0.360925 2 1 0
0.931506 0.360581 0.360581 2 1 0
0.932914 0.360237 0.360237 2 1 0
0.934324 0.359893 0.359893 2 1 0
0.935735 0.359549 0.359549 2 1 0
0.937147 0.359206 0.359206 2 1 0
0.93856 0.358863 0.358863 2 1 0
0.939975 0.358521 0.358521 2 1 0
0.94139 0.358178 0.358178 2 1 0
0.942807 0.357836 0.357836 2 1 0
0.944225 0.357494 0.357494 2 1 0
0.945643 0.357152 0.357152 2 1 0
0.947063 0.356811 0.356811 2 1 0
0.948484 0.356469 0.356469 2 1 0
0.949907 0.356128 0.356128 2 1 0
0.95133 0.355788 0.355788 2 1 0
0.952754 0.355447 0.355447 2 1 0
0.95418 0.355107 0.355107 2 1 0
0.955606 0.354767 0.354767 2 1 0
0.957034 0.354427 0.354427 2 1 0
0.958463 0.354087 0.354087 2 1 0
0.959893 0.353748 0.353748 2 1 0
0.961324 0.353409 0.353409 2 1 0
0.962756 0.35307 0.35307 2 1 0
0.964189 0.352732 0.352732 2 1 0
0.965624 0.352394 0.352394 2 1 0
0.967059 0.352056 0.352056 2 1 0
0.968496 0.351718 0.351718 2 1 0
0.969933 0.35138 0.35138 2 1 0
0.971372 0.351043 0.351043 2 1 0
0.972812 0.350706 0.350706 2 1 0
0.974252 0.350369 0.350369 2 1 0
0.975694 0.350033 0.350033 2 1 0
0.977137 0.349697 0.349697 2 1 0
0.978581 0.349361 0.349361 2 1 0
0.980026 0.349025 0.349025 2 1 0
0.981473 0.348689 0.348689 2 1 0
0.98292 0.348354 0.348354 2 1 0
0.984368 0.348019 0.348019 2 1 0
0.985817 0.347684 0.347684 2 1 0
0.987268 0.34735 0.34735 2 1 0
0.988719 0.347016 0.347016 2 1 0
0.990172 0.346682 0.346682 2 1 0
0.991626 0.346348 0.346348 2 1 0
0.99308 0.346015 0.346015 2 1 0
0.994536 0.345681 0.345681 2 1 0
0.995993 0.345348 0.345348 2 1 0
0.99745 0.345016 0.345016 2 1 0
0.998909 0.344683 0.344683 2 1 0
1.00037 0.344351 0.344351 2 1 0
1.00183 0.344019 0.344019 2 1 0
1.00329 0.343688 0.343688 2 1 0
1.00475 0.343356 0.343356 2 1 0
1.00622 0.343025 0.343025 2 1 0
1.00768 0.342694 0.342694 2 1 0
1.00915 0.342364 0.342364 2 1 0
1.01062 0.342033 0.342033 2 1 0
1.01209 0.341703 0.341703 2 1 0
1.01355 0.341373 0.341373 2 1 0
1.01502 0.341044 0.341044 2 1 0
1.0165 0.340715 0.340715 2 1 0
1.01797 0.340386 0.340386 2 1 0
1.01944 0.340057 0.340057 2 1 0
1.02092 0.339728 0.339728 2 1 0
1.02239 0.3394 0.3394 2 1 0
1.02387 0.339072 0.339072 2 1 0
1.02534 0.338744 0.338744 2 1 0
1.02682 0.338417 0.338417 2 1 0
1.0283 0.338089 0.338089 2 1 0
1.02978 0.337763 0.337763 2 1 0
1.03126 0.337436 0.337436 2 1 0
1.03275 0.337109 0.337109 2 1 0
1.03423 0.336783 0.336783 2 1 0
1.03571 0.336457 0.336457 2 1 0
1.0372 0.336132 0.336132 2 1 0
1.03868 0.335806 0.335806 2 1 0
1.04017 0.335481 0.335481 2 1 0
1.04166 0.335156 0.335156 2 1 0
1.04315 0.334832 0.334832 2 1 0
1.04464 0.334508 0.334508 2 1 0
1.04613 0.334183 0.334183 2 1 0
1.04762 0.33386 0.33386 2 1 0
1.04911 0.333536 0.333536 2 1 0
1.05061 0.333213 0.333213 2 1 0
1.0521 0.33289 0.33289 2 1 0
1.0536 0.332567 0.332567 2 1 0
1.0551 0.332245 0.332245 2 1 0
1.05659 0.331923 0.331923 2 1 0
1.05809 0.331601 0.331601 2 1 0
1.05959 0.331279 0.331279 2 1 0
1.06109 0.330958 0.330958 2 1 0
1.06259 0.330636 0.330636 2 1 0
1.0641 0.330316 0.330316 2 1 0
1.0656 0.329995 0.329995 2 1 0
1.0671 0.329675 0.329675 2 1 0
1.06861 0.329355 0.329355 2 1 0
1.07012 0.329035 0.329035 2 1 0
1.07162 0.328715 0.328715 2 1 0
1.07313 0.328396 0.328396 2 1 0
1.07464 0.328077 0.328077 2 1 0
1.07615 0.327759 0.327759 2 1 0
1.07766 0.32744 0.32744 2 1 0
1.07917 0.327122 0.327122 2 1 0
1.08069 0.326804 0.326804 2 1 0
1.0822 0.326486 0.326486 2 1 0
1.08372 0.326169 0.326169 2 1 0
1.08523 0.325852 0.325852 2 1 0
1.08675 0.325535 0.325535 2 1 0
1.08826 0.325219 0.325219 2 1 0
1.08978 0.324902 0.324902 2 1 0
1.0913 0.324586 0.324586 2 1 0
1.09282 0.324271 0.324271 2 1 0
1.09434 0.323955 0.323955 2 1 0
1.09587 0.32364 0.32364 2 1 0
1.09739 0.323325 0.323325 2 1 0
1.09891 0.32301 0.32301 2 1 0
1.10044 0.322696 0.322696 2 1 0
1.10196 0.322382 0.322382 2 1 0
1.10349 0.322068 0.322068 2 1 0
1.10502 0.321754 0.321754 2 1 0
1.10654 0.321441 0.321441 2 1 0
1.10807 0.321128 0.321128 2 1 0
1.1096 0.320815 0.320815 2 1 0
1.11113 0.320503 0.320503 2 1 0
1.11266 0.320191 0.320191 2 1 0
1.1142 0.319879 0.319879 2 1 0
1.11573 0.319567 0.319567 2 1 0
1.11727 0.319256 0.319256 2 1 0
1.1188 0.318945 0.318945 2 1 0
1.12034 0.318634 0.318634 2 1 0
1.12187 0.318323 0.318323 2 1 0
1.12341 0.318013 0.318013 2 1 0
1.12495 0.317703 0.317703 2 1 0
1.12649 0.317393 0.317393 2 1 0
1.12803 0.317084 0.317084 2 1 0
1.12957 0.316775 0.316775 2 1 0
1.13111 0.316466 0.316466 2 1 0
1.13266 0.316157 0.316157 2 1 0
1.1342 0.315849 0.315849 2 1 0
1.13574 0.315541 0.315541 2 1 0
1.13729 0.315233 0.315233 2 1 0
1.13884 0.314925 0.314925 2 1 0
1.14038 0.314618 0.314618 2 1 0
1.14193 0.314311 0.314311 2 1 0
1.14348 0.314004 0.314004 2 1 0
1.14503 0.313698 0.313698 2 1 0
1.14658 0.313392 0.313392 2 1 0
1.14813 0.313086 0.313086 2 1 0
1.14968 0.31278 0.31278 2 1 0
1.15124 0.312475 0.312475 2 1 0
1.15279 0.31217 0.31217 2 1 0
1.15434 0.311865 0.311865 2 1 0
1.1559 0.31156 0.31156 2 1 0
1.15745 0.311256 0.311256 2 1 0
1.15901 0.310952 0.310952 2 1 0
1.16057 0.310649 0.310649 2 1 0
1.16213 0.310345 0.310345 2 1 0
1.16369 0.310042 0.310042 2 1 0
1.16525 0.309739 0.309739 2 1 0
1.16681 0.309437 0.309437 2 1 0
1.16837 0.309134 0.309134 2 1 0
1.16993 0.308832 0.308832 2 1 0
1.1715 0.30853 0.30853 2 1 0
1.17306 0.308229 0.308229 2 1 0
1.17463 0.307928 0.307928 2 1 0
1.17619 0.307627 0.307627 2 1 0
1.17776 0.307326 0.307326 2 1 0
1.17933 0.307026 0.307026 2 1 0
1.18089 0.306726 0.306726 2 1 0
1.18246 0.306426 0.306426 2 1 0
1.18403 0.306126 0.306126 2 1 0
1.1856 0.305827 0.305827 2 1 0
1.18717 0.305528 0.305528 2 1 0
1.18875 0.305229 0.305229 2 1 0
1.19032 0.304931 0.304931 2 1 0
1.19189 0.304633 0.304633 2 1 0
1.19347 0.304335 0.304335 2 1 0
1.19504 0.304037 0.304037 2 1 0
1.19662 0.30374 0.30374 2 1 0
1.19819 0.303443 0.303443 2 1 0
1.19977 0.303146 0.303146 2 1 0
1.20135 0.30285 0.30285 2 1 0
1.20293 0.302553 0.302553 2 1 0
1.20451 0.302258 0.302258 2 1 0
1.20609 0.301962 0.301962 2 1 0
1.20767 0.301666 0.301666 2 1 0
1.20925 0.301371 0.301371 2 1 0
1.21083 0.301077 0.301077 2 1 0
1.21241 0.300782 0.300782 2 1 0
1.214 0.300488 0.300488 2 1 0
1.21558 0.300194 0.300194 2 1 0
1.21717 0.2999 0.2999 2 1 0
1.21875 0.299607 0.299607 2 1 0
1.22034 0.299313 0.299313 2 1 0
1.22193 0.299021 0.299021 2 1 0
1.22352 0.298728 0.298728 2 1 0
1.22511 0.298436 0.298436 2 1 0
1.2267 0.298144 0.298144 2 1 0
1.22829 0.297852 0.297852 2 1 0
1.22988 0.29756 0.29756 2 1 0
1.23147 0.297269 0.297269 2 1 0
1.23306 0.296978 0.296978 2 1 0
1.23466 0.296688 0.296688 2 1 0
1.23625 0.296397 0.296397 2 1 0
1.23784 0.296107 0.296107 2 1 0
1.23944 0.295817 0.295817 2 1 0
1.24104 0.295528 0.295528 2 1 0
1.24263 0.295238 0.295238 2 1 0
1.24423 0.294949 0.294949 2 1 0
1.24583 0.294661 0.294661 2 1 0
1.24743 0.294372 0.294372 2 1 0
1.24903 0.294084 0.294084 2 1 0
1.25063 0.293796 0.293796 2 1 0
1.25223 0.293509 0.293509 2 1 0
1.25383 0.293221 0.293221 2 1 0
1.25543 0.292934 0.292934 2 1 0
1.25703 0.292648 0.292648 2 1 0
1.25864 0.292361 0.292361 2 1 0
1.26024 0.292075 0.292075 2 1 0
1.26185 0.291789 0.291789 2 1 0
1.26345 0.291503 0.291503 2 1 0
1.26506 0.291218 0.291218 2 1 0
1.26667 0.290933 0.290933 2 1 0
1.26827 0.290648 0.290648 2 1 0
1.26988 0.290363 0.290363 2 1 0
1.27149 0.290079 0.290079 2 1 0
1.2731 0.289795 0.289795 2 1 0
1.27471 0.289512 0.289512 2 1 0
1.27632 0.289228 0.289228 2 1 0
1.27793 0.288945 0.288945 2 1 0
1.27955 0.288662 0.288662 2 1 0
1.28116 0.288379 0.288379 2 1 0
1.28277 0.288097 0.288097 2 1 0
1.28439 0.287815 0.287815 2 1 0
1.286 0.287533 0.287533 2 1 0
1.28762 0.287252 0.287252 2 1 0
1.28923 0.286971 0.286971 2 1 0
1.29085 0.28669 0.28669 2 1 0
1.29247 0.286409 0.286409 2 1 0
1.29408 0.286129 0.286129 2 1 0
1.2957 0.285849 0.285849 2 1 0
1.29732 0.285569 0.285569 2 1 0
1.29894 0.285289 0.285289 2 1 0
1.30056 0.28501 0.28501 2 1 0
1.30218 0.284731 0.284731 2 1 0
1.3038 0.284452 0.284452 2 1 0
1.30543 0.284174 0.284174 2 1 0
1.30705 0.283896 0.283896 2 1 0
1.30867 0.283618 0.283618 2 1 0
1.3103 0.28334 0.28334 2 1 0
1.31192 0.283063 0.283063 2 1 0
1.31355 0.282786 0.282786 2 1 0
1.31517 0.282509 0.282509 2 1 0
1.3168 0.282233 0.282233 2 1 0
1.31843 0.281957 0.281957 2 1 0
1.32005 0.281681 0.281681 2 1 0
1.32168 0.281405 0.281405 2 1 0
1.32331 0.28113 0.28113 2 1 0
1.32494 0.280855 0.280855 2 1 0
1.32657 0.28058 0.28058 2 1 0
1.3282 0.280305 0.280305 2 1 0
1.32983 0.280031 0.280031 2 1 0
1.33146 0.279757 0.279757 2 1 0
1.33309 0.279483 0.279483 2 1 0
1.33473 0.27921 0.27921 2 1 0
1.33636 0.278937 0.278937 2 1 0
1.33799 0.278664 0.278664 2 1 0
1.33963 0.278391 0.278391 2 1 0
1.34126 0.278119 0.278119 2 1 0
1.3429 0.277847 0.277847 2 1 0
1.34454 0.277575 0.277575 2 1 0
1.34617 0.277303 0.277303 2 1 0
1.34781 0.277032 0.277032 2 1 0
1.34945 0.276761 0.276761 2 1 0
1.35109 0.276491 0.276491 2 1 0
1.35273 0.27622 0.27622 2 1 0
1.35437 0.27595 0.27595 2 1 0
1.35601 0.27568 0.27568 2 1 0
1.35765 0.275411 0.275411 2 1 0
1.35929 0.275141 0.275141 2 1 0
1.36093 0.274872 0.274872 2 1 0
1.36257 0.274604 0.274604 2 1 0
1.36421 0.274335 0.274335 2 1 0
1.36586 0.274067 0.274067 2 1 0
1.3675 0.273799 0.273799 2 1 0
1.36915 0.273531 0.273531 2 1 0
1.37079 0.273264 0.273264 2 1 0
1.37244 0.272997 0.272997 2 1 0
1.37408 0.27273 0.27273 2 1 0
1.37573 0.272464 0.272464 2 1 0
1.37738 0.272197 0.272197 2 1 0
1.37902 0.271931 0.271931 2 1 0
1.38067 0.271666 0.271666 2 1 0
1.38232 0.2714 0.2714 2 1 0
1.38397 0.271135 0.271135 2 1 0
1.38562 0.27087 0.27087 2 1 0
1.38727 0.270606 0.270606 2 1 0
1.38892 0.270341 0.270341 2 1 0
1.39057 0.270077 0.270077 2 1 0
1.39222 0.269813 0.269813 2 1 0
1.39387 0.26955 0.26955 2 1 0
1.39553 0.269287 0.269287 2 1 0
1.39718 0.269024 0.269024 2 1 0
1.39883 0.268761 0.268761 2 1 0
1.40049 0.268498 0.268498 2 1 0
1.40214 0.268236 0.268236 2 1 0
1.4038 0.267974 0.267974 2 1 0
1.40545 0.267713 0.267713 2 1 0
1.40711 0.267451 0.267451 2 1 0
1.40876 0.26719 0.26719 2 1 0
1.41042 0.26693 0.26693 2 1 0
1.41208 0.266669 0.266669 2 1 0
1.41374 0.266409 0.266409 2 1 0
1.4154 0.266149 0.266149 2 1 0
1.41705 0.265889 0.265889 2 1 0
1.41871 0.26563 0.26563 2 1 0
1.42037 0.265371 0.265371 2 1 0
1.42203 0.265112 0.265112 2 1 0
1.42369 0.264853 0.264853 2 1 0
1.42536 0.264595 0.264595 2 1 0
1.42702 0.264337 0.264337 2 1 0
1.42868 0.264079 0.264079 2 1 0
1.43034 0.263821 0.263821 2 1 0
1.43201 0.263564 0.263564 2 1 0
1.43367 0.263307 0.263307 2 1 0
1.43533 0.263051 0.263051 2 1 0
1.437 0.262794 0.262794 2 1 0
1.43866 0.262538 0.262538 2 1 0
1.44033 0.262282 0.262282 2 1 0
1.44199 0.262026 0.262026 2 1 0
1.44366 0.261771 0.261771 2 1 0
1.44533 0.261516 0.261516 2 1 0
1.44699 0.261261 0.261261 2 1 0
1.44866 0.261007 0.261007 2 1 0
1.45033 0.260752 0.260752 2 1 0
1.452 0.260498 0.260498 2 1 0
1.45366 0.260245 0.260245 2 1 0
1.45533 0.259991 0.259991 2 1 0
1.457 0.259738 0.259738 2 1 0
1.45867 0.259485 0.259485 2 1 0
1.46034 0.259232 0.259232 2 1 0
1.46201 0.25898 0.25898 2 1 0
1.46369 0.258728 0.258728 2 1 0
1.46536 0.258476 0.258476 2 1 0
1.46703 0.258225 0.258225 2 1 0
1.4687 0.257973 0.257973 2 1 0
1.47037 0.257722 0.257722 2 1 0
1.47205 0.257472 0.257472 2 1 0
1.47372 0.257221 0.257221 2 1 0
1.4754 0.256971 0.256971 2 1 0
1.47707 0.256721 0.256721 2 1 0
1.47874 0.256471 0.256471 2 1 0
1.48042 0.256222 0.256222 2 1 0
1.4821 0.255973 0.255973 2 1 0
1.48377 0.255724 0.255724 2 1 0
1.48545 0.255475 0.255475 2 1 0
1.48713 0.255227 0.255227 2 1 0
1.4888 0.254979 0.254979 2 1 0
1.49048 0.254731 0.254731 2 1 0
1.49216 0.254483 0.254483 2 1 0
1.49384 0.254236 0.254236 2 1 0
1.49551 0.253989 0.253989 2 1 0
1.49719 0.253742 0.253742 2 1 0
1.49887 0.253496 0.253496 2 1 0
1.50055 0.25325 0.25325 2 1 0
1.50223 0.253004 0.253004 2 1 0
1.50391 0.252758 0.252758 2 1 0
1.5056 0.252513 0.252513 2 1 0
1.50728 0.252267 0.252267 2 1 0
1.50896 0.252023 0.252023 2 1 0
1.51064 0.251778 0.251778 2 1 0
1.51232 0.251534 0.251534 2 1 0
1.51401 0.25129 0.25129 2 1 0
1.51569 0.251046 0.251046 2 1 0
1.51737 0.250802 0.250802 2 1 0
1.51906 0.250559 0.250559 2 1 0
1.52074 0.250316 0.250316 2 1 0
1.52242 0.250073 0.250073 2 1 0
1.52411 0.249831 0.249831 2 1 0
1.52579 0.249588 0.249588 2 1 0
1.52748 0.249346 0.249346 2 1 0
1.52917 0.249105 0.249105 2 1 0
1.53085 0.248863 0.248863 2 1 0
1.53254 0.248622 0.248622 2 1 0
1.53423 0.248381 0.248381 2 1 0
1.53591 0.248141 0.248141 2 1 0
1.5376 0.2479 0.2479 2 1 0
1.53929 0.24766 0.24766 2 1 0
1.54098 0.24742 0.24742 2 1 0
1.54267 0.247181 0.247181 2 1 0
1.54435 0.246941 0.246941 2 1 0
1.54604 0.246702 0.246702 2 1 0
1.54773 0.246463 0.246463 2 1 0
1.54942 0.246225 0.246225 2 1 0
1.55111 0.245987 0.245987 2 1 0
1.5528 0.245749 0.245749 2 1 0
1.55449 0.245511 0.245511 2 1 0
1.55619 0.245273 0.245273 2 1 0
1.55788 0.245036 0.245036 2 1 0
1.55957 0.244799 0.244799 2 1 0
1.56126 0.244563 0.244563 2 1 0
1.56295 0.244326 0.244326 2 1 0
1.56465 0.24409 0.24409 2 1 0
1.56634 0.243854 0.243854 2 1 0
1.56803 0.243618 0.243618 2 1 0
1.56973 0.243383 0.243383 2 1 0
1.57142 0.243148 0.243148 2 1 0
1.57311 0.242913 0.242913 2 1 0
1.57481 0.242678 0.242678 2 1 0
1.5765 0.242444 0.242444 2 1 0
1.5782 0.24221 0.24221 2 1 0
1.57989 0.241976 0.241976 2 1 0
1.58159 0.241742 0.241742 2 1 0
1.58328 0.241509 0.241509 2 1 0
1.58498 0.241276 0.241276 2 1 0
1.58668 0.241043 0.241043 2 1 0
1.58837 0.240811 0.240811 2 1 0
1.59007 0.240578 0.240578 2 1 0
1.59177 0.240346 0.240346 2 1 0
1.59346 0.240115 0.240115 2 1 0
1.59516 0.239883 0.239883 2 1 0
1.59686 0.239652 0.239652 2 1 0
1.59856 0.239421 0.239421 2 1 0
1.60026 0.23919 0.23919 2 1 0
1.60196 0.23896 0.23896 2 1 0
1.60365 0.238729 0.238729 2 1 0
1.60535 0.238499 0.238499 2 1 0
1.60705 0.23827 0.23827 2 1 0
1.60875 0.23804 0.23804 2 1 0
1.61045 0.237811 0.237811 2 1 0
1.61215 0.237582 0.237582 2 1 0
1.61385 0.237353 0.237353 2 1 0
1.61556 0.237125 0.237125 2 1 0
1.61726 0.236897 0.236897 2 1 0
1.61896 0.236669 0.236669 2 1 0
1.62066 0.236441 0.236441 2 1 0
1.62236 0.236214 0.236214 2 1 0
1.62406 0.235987 0.235987 2 1 0
1.62577 0.23576 0.23576 2 1 0
1.62747 0.235533 0.235533 2 1 0
1.62917 0.235307 0.235307 2 1 0
1.63087 0.235081 0.235081 2 1 0
1.63258 0.234855 0.234855 2 1 0
1.63428 0.234629 0.234629 2 1 0
1.63598 0.234404 0.234404 2 1 0
1.63769 0.234179 0.234179 2 1 0
1.63939 0.233954 0.233954 2 1 0
1.6411 0.233729 0.233729 2 1 0
1.6428 0.233505 0.233505 2 1 0
1.64451 0.233281 0.233281 2 1 0
1.64621 0.233057 0.233057 2 1 0
1.64792 0.232833 0.232833 2 1 0
1.64962 0.23261 0.23261 2 1 0
1.65133 0.232387 0.232387 2 1 0
1.65303 0.232164 0.232164 2 1 0
1.65474 0.231941 0.231941 2 1 0
1.65645 0.231719 0.231719 2 1 0
1.65815 0.231497 0.231497 2 1 0
1.65986 0.231275 0.231275 2 1 0
1.66157 0.231054 0.231054 2 1 0
1.66327 0.230832 0.230832 2 1 0
1.66498 0.230611 0.230611 2 1 0
1.66669 0.23039 0.23039 2 1 0
1.6684 0.23017 0.23017 2 1 0
1.6701 0.229949 0.229949 2 1 0
1.67181 0.229729 0.229729 2 1 0
1.67352 0.229509 0.229509 2 1 0
1.67523 0.22929 0.22929 2 1 0
1.67694 0.229071 0.229071 2 1 0
1.67865 0.228851 0.228851 2 1 0
1.68036 0.228633 0.228633 2 1 0
1.68207 0.228414 0.228414 2 1 0
1.68377 0.228196 0.228196 2 1 0
1.68548 0.227978 0.227978 2 1 0
1.68719 0.22776 0.22776 2 1 0
1.6889 0.227542 0.227542 2 1 0
1.69061 0.227325 0.227325 2 1 0
1.69232 0.227108 0.227108 2 1 0
1.69404 0.226891 0.226891 2 1 0
1.69575 0.226674 0.226674 2 1 0
1.69746 0.226458 0.226458 2 1 0
1.69917 0.226242 0.226242 2 1 0
1.70088 0.226026 0.226026 2 1 0
1.70259 0.22581 0.22581 2 1 0
1.7043 0.225595 0.225595 2 1 0
1.70601 0.22538 0.22538 2 1 0
1.70773 0.225165 0.225165 2 1 0
1.70944 0.22495 0.22495 2 1 0
1.71115 0.224736 0.224736 2 1 0
1.71286 0.224522 0.224522 2 1 0
1.71457 0.224308 0.224308 2 1 0
1.71629 0.224094 0.224094 2 1 0
1.718 0.223881 0.223881 2 1 0
1.71971 0.223668 0.223668 2 1 0
1.72143 0.223455 0.223455 2 1 0
1.72314 0.223242 0.223242 2 1 0
1.72485 0.22303 0.22303 2 1 0
1.72657 0.222818 0.222818 2 1 0
1.72828 0.222606 0.222606 2 1 0
1.72999 0.222394 0.222394 2 1 0
1.73171 0.222183 0.222183 2 1 0
1.73342 0.221971 0.221971 2 1 0
1.73514 0.221761 0.221761 2 1 0
1.73685 0.22155 0.22155 2 1 0
1.73856 0.221339 0.221339 2 1 0
1.74028 0.221129 0.221129 2 1 0
1.74199 0.220919 0.220919 2 1 0
1.74371 0.220709 0.220709 2 1 0
1.74542 0.2205 0.2205 2 1 0
1.74714 0.220291 0.220291 2 1 0
1.74885 0.220082 0.220082 2 1 0
1.75057 0.219873 0.219873 2 1 0
1.75229 0.219664 0.219664 2 1 0
1.754 0.219456 0.219456 2 1 0
1.75572 0.219248 0.219248 2 1 0
1.75743 0.21904 0.21904 2 1 0
1.75915 0.218833 0.218833 2 1 0
1.76086 0.218625 0.218625 2 1 0
1.76258 0.218418 0.218418 2 1 0
1.7643 0.218211 0.218211 2 1 0
1.76601 0.218005 0.218005 2 1 0
1.76773 0.217798 0.217798 2 1 0
1.76945 0.217592 0.217592 2 1 0
1.77116 0.217386 0.217386 2 1 0
1.77288 0.217181 0.217181 2 1 0
1.7746 0.216975 0.216975 2 1 0
1.77631 0.21677 0.21677 2 1 0
1.77803 0.216565 0.216565 2 1 0
1.77975 0.21636 0.21636 2 1 0
1.78147 0.216156 0.216156 2 1 0
1.78318 0.215952 0.215952 2 1 0
1.7849 0.215748 0.215748 2 1 0
1.78662 0.215544 0.215544 2 1 0
1.78834 0.21534 0.21534 2 1 0
1.79005 0.215137 0.215137 2 1 0
1.79177 0.214934 0.214934 2 1 0
1.79349 0.214731 0.214731 2 1 0
1.79521 0.214529 0.214529 2 1 0
1.79693 0.214326 0.214326 2 1 0
1.79865 0.214124 0.214124 2 1 0
1.80036 0.213922 0.213922 2 1 0
1.80208 0.213721 0.213721 2 1 0
1.8038 0.213519 0.213519 2 1 0
1.80552 0.213318 0.213318 2 1 0
1.80724 0.213117 0.213117 2 1 0
1.80896 0.212917 0.212917 2 1 0
1.81068 0.212716 0.212716 2 1 0
1.81239 0.212516 0.212516 2 1 0
1.81411 0.212316 0.212316 2 1 0
1.81583 0.212116 0.212116 2 1 0
1.81755 0.211917 0.211917 2 1 0
1.81927 0.211717 0.211717 2 1 0
1.82099 0.211518 0.211518 2 1 0
1.82271 0.21132 0.21132 2 1 0
1.82443 0.211121 0.211121 2 1 0
1.82615 0.210923 0.210923 2 1 0
1.82787 0.210725 0.210725 2 1 0
1.82959 0.210527 0.210527 2 1 0
1.83131 0.210329 0.210329 2 1 0
1.83303 0.210132 0.210132 2 1 0
1.83475 0.209934 0.209934 2 1 0
1.83647 0.209737 0.209737 2 1 0
1.83819 0.209541 0.209541 2 1 0
1.83991 0.209344 0.209344 2 1 0
1.84163 0.209148 0.209148 2 1 0
1.84335 0.208952 0.208952 2 1 0
1.84507 0.208756 0.208756 2 1 0
1.84679 0.208561 0.208561 2 1 0
1.84851 0.208365 0.208365 2 1 0
1.85023 0.20817 0.20817 2 1 0
1.85195 0.207975 0.207975 2 1 0
1.85367 0.207781 0.207781 2 1 0
1.85539 0.207586 0.207586 2 1 0
1.85711 0.207392 0.207392 2 1 0
1.85883 0.207198 0.207198 2 1 0
1.86055 0.207004 0.207004 2 1 0
1.86227 0.206811 0.206811 2 1 0
1.86399 0.206617 0.206617 2 1 0
1.86571 0.206424 0.206424 2 1 0
1.86743 0.206231 0.206231 2 1 0
1.86915 0.206039 0.206039 2 1 0
1.87087 0.205847 0.205847 2 1 0
1.87259 0.205654 0.205654 2 1 0
1.87431 0.205462 0.205462 2 1 0
1.87603 0.205271 0.205271 2 1 0
1.87775 0.205079 0.205079 2 1 0
1.87948 0.204888 0.204888 2 1 0
1.8812 0.204697 0.204697 2 1 0
1.88292 0.204506 0.204506 2 1 0
1.88464 0.204316 0.204316 2 1 0
1.88636 0.204125 0.204125 2 1 0
1.88808 0.203935 0.203935 2 1 0
1.8898 0.203745 0.203745 2 1 0
1.89152 0.203556 0.203556 2 1 0
1.89324 0.203366 0.203366 2 1 0
1.89496 0.203177 0.203177 2 1 0
1.89668 0.202988 0.202988 2 1 0
1.89841 0.202799 0.202799 2 1 0
1.90013 0.202611 0.202611 2 1 0
1.90185 0.202422 0.202422 2 1 0
1.90357 0.202234 0.202234 2 1 0
1.90529 0.202046 0.202046 2 1 0
1.90701 0.201859 0.201859 2 1 0
1.90873 0.201671 0.201671 2 1 0
1.91045 0.201484 0.201484 2 1 0
1.91217 0.201297 0.201297 2 1 0
1.91389 0.20111 0.20111 2 1 0
1.91562 0.200924 0.200924 2 1 0
1.91734 0.200737 0.200737 2 1 0
1.91906 0.200551 0.200551 2 1 0
1.92078 0.200365 0.200365 2 1 0
1.9225 0.20018 0.20018 2 1 0
1.92422 0.199994 0.199994 2 1 0
1.92594 0.199809 0.199809 2 1 0
1.92766 0.199624 0.199624 2 1 0
1.92938 0.199439 0.199439 2 1 0
1.93111 0.199255 0.199255 2 1 0
1.93283 0.19907 0.19907 2 1 0
1.93455 0.198886 0.198886 2 1 0
1.93627 0.198702 0.198702 2 1 0
1.93799 0.198519 0.198519 2 1 0
1.93971 0.198335 0.198335 2 1 0
1.94143 0.198152 0.198152 2 1 0
1.94315 0.197969 0.197969 2 1 0
1.94487 0.197786 0.197786 2 1 0
1.94659 0.197604 0.197604 2 1 0
1.94831 0.197421 0.197421 2 1 0
1.95004 0.197239 0.197239 2 1 0
1.95176 0.197057 0.197057 2 1 0
1.95348 0.196875 0.196875 2 1 0
1.9552 0.196694 0.196694 2 1 0
1.95692 0.196513 0.196513 2 1 0
1.95864 0.196332 0.196332 2 1 0
1.96036 0.196151 0.196151 2 1 0
1.96208 0.19597 0.19597 2 1 0
1.9638 0.19579 0.19579 2 1 0
1.96552 0.19561 0.19561 2 1 0
1.96724 0.19543 0.19543 2 1 0
1.96896 0.19525 0.19525 2 1 0
1.97068 0.19507 0.19507 2 1 0
1.9724 0.194891 0.194891 2 1 0
1.97412 0.194712 0.194712 2 1 0
1.97584 0.194533 0.194533 2 1 0
1.97757 0.194354 0.194354 2 1 0
1.97929 0.194176 0.194176 2 1 0
1.98101 0.193997 0.193997 2 1 0
1.98273 0.193819 0.193819 2 1 0
1.98445 0.193641 0.193641 2 1 0
1.98617 0.193464 0.193464 2 1 0
1.98789 0.193286 0.193286 2 1 0
1.98961 0.193109 0.193109 2 1 0
1.99133 0.192932 0.192932 2 1 0
1.99305 0.192755 0.192755 2 1 0
1.99477 0.192579 0.192579 2 1 0
1.99649 0.192402 0.192402 2 1 0
1.99821 0.192226 0.192226 2 1 0
1.99993 0.19205 0.19205 2 1 0
2.00165 0.191875 0.191875 2 1 0
2.00337 0.191699 0.191699 2 1 0
2.00509 0.191524 0.191524 2 1 0
2.00681 0.191349 0.191349 2 1 0
2.00852 0.191174 0.191174 2 1 0
2.01024 0.190999 0.190999 2 1 0
2.01196 0.190825 0.190825 2 1 0
2.01368 0.19065 0.19065 2 1 0
2.0154 0.190476 0.190476 2 1 0
2.01712 0.190303 0.190303 2 1 0
2.01884 0.190129 0.190129 2 1 0
2.02056 0.189956 0.189956 2 1 0
2.02228 0.189782 0.189782 2 1 0
2.024 0.189609 0.189609 2 1 0
2.02572 0.189437 0.189437 2 1 0
2.02744 0.189264 0.189264 2 1 0
2.02916 0.189092 0.189092 2 1 0
2.03087 0.188919 0.188919 2 1 0
2.03259 0.188748 0.188748 2 1 0
2.03431 0.188576 0.188576 2 1 0
2.03603 0.188404 0.188404 2 1 0
2.03775 0.188233 0.188233 2 1 0
2.03947 0.188062 0.188062 2 1 0
2.04119 0.187891 0.187891 2 1 0
2.0429 0.18772 0.18772 2 1 0
2.04462 0.18755 0.18755 2 1 0
2.04634 0.187379 0.187379 2 1 0
2.04806 0.187209 0.187209 2 1 0
2.04978 0.187039 0.187039 2 1 0
2.05149 0.18687 0.18687 2 1 0
2.05321 0.1867 0.1867 2 1 0
2.05493 0.186531 0.186531 2 1 0
2.05665 0.186362 0.186362 2 1 0
2.05837 0.186193 0.186193 2 1 0
2.06008 0.186024 0.186024 2 1 0
2.0618 0.185856 0.185856 2 1 0
2.06352 0.185687 0.185687 2 1 0
2.06524 0.185519 0.185519 2 1 0
2.06695 0.185352 0.185352 2 1 0
2.06867 0.185184 0.185184 2 1 0
2.07039 0.185016 0.185016 2 1 0
2.0721 0.184849 0.184849 2 1 0
2.07382 0.184682 0.184682 2 1 0
2.07554 0.184515 0.184515 2 1 0
2.07725 0.184349 0.184349 2 1 0
2.07897 0.184182 0.184182 2 1 0
2.08069 0.184016 0.184016 2 1 0
2.0824 0.18385 0.18385 2 1 0
2.08412 0.183684 0.183684 2 1 0
2.08584 0.183519 0.183519 2 1 0
2.08755 0.183353 0.183353 2 1 0
2.08927 0.183188 0.183188 2 1 0
2.09098 0.183023 0.183023 2 1 0
2.0927 0.182858 0.182858 2 1 0
2.09442 0.182693 0.182693 2 1 0
2.09613 0.182529 0.182529 2 1 0
2.09785 0.182365 0.182365 2 1 0
2.09956 0.182201 0.182201 2 1 0
2.10128 0.182037 0.182037 2 1 0
2.10299 0.181873 0.181873 2 1 0
2.10471 0.18171 0.18171 2 1 0
2.10642 0.181546 0.181546 2 1 0
2.10814 0.181383 0.181383 2 1 0
2.10985 0.181221 0.181221 2 1 0
2.11157 0.181058 0.181058 2 1 0
2.11328 0.180896 0.180896 2 1 0
2.115 0.180733 0.180733 2 1 0
2.11671 0.180571 0.180571 2 1 0
2.11843 0.180409 0.180409 2 1 0
2.12014 0.180248 0.180248 2 1 0
2.12186 0.180086 0.180086 2 1 0
2.12357 0.179925 0.179925 2 1 0
2.12529 0.179764 0.179764 2 1 0
2.127 0.179603 0.179603 2 1 0
2.12871 0.179442 0.179442 2 1 0
2.13043 0.179282 0.179282 2 1 0
2.13214 0.179122 0.179122 2 1 0
2.13385 0.178961 0.178961 2 1 0
2.13557 0.178802 0.178802 2 1 0
2.13728 0.178642 0.178642 2 1 0
2.13899 0.178482 0.178482 2 1 0
2.14071 0.178323 0.178323 2 1 0
2.14242 0.178164 0.178164 2 1 0
2.14413 0.178005 0.178005 2 1 0
2.14585 0.177846 0.177846 2 1 0
2.14756 0.177688 0.177688 2 1 0
2.14927 0.177529 0.177529 2 1 0
2.15098 0.177371 0.177371 2 1 0
2.1527 0.177213 0.177213 2 1 0
2.15441 0.177055 0.177055 2 1 0
2.15612 0.176898 0.176898 2 1 0
2.15783 0.17674 0.17674 2 1 0
2.15954 0.176583 0.176583 2 1 0
2.16125 0.176426 0.176426 2 1 0
2.16297 0.176269 0.176269 2 1 0
2.16468 0.176113 0.176113 2 1 0
2.16639 0.175956 0.175956 2 1 0
2.1681 0.1758 0.1758 2 1 0
2.16981 0.175644 0.175644 2 1 0
2.17152 0.175488 0.175488 2 1 0
2.17323 0.175333 0.175333 2 1 0
2.17494 0.175177 0.175177 2 1 0
2.17665 0.175022 0.175022 2 1 0
2.17837 0.174867 0.174867 2 1 0
2.18008 0.174712 0.174712 2 1 0
2.18179 0.174557 0.174557 2 1 0
2.1835 0.174403 0.174403 2 1 0
2.18521 0.174248 0.174248 2 1 0
2.18692 0.174094 0.174094 2 1 0
2.18863 0.17394 0.17394 2 1 0
2.19033 0.173786 0.173786 2 1 0
2.19204 0.173633 0.173633 2 1 0
2.19375 0.173479 0.173479 2 1 0
2.19546 0.173326 0.173326 2 1 0
2.19717 0.173173 0.173173 2 1 0
2.19888 0.17302 0.17302 2 1 0
2.20059 0.172868 0.172868 2 1 0
2.2023 0.172715 0.172715 2 1 0
2.20401 0.172563 0.172563 2 1 0
2.20572 0.172411 0.172411 2 1 0
2.20742 0.172259 0.172259 2 1 0
2.20913 0.172107 0.172107 2 1 0
2.21084 0.171956 0.171956 2 1 0
2.21255 0.171804 0.171804 2 1 0
2.21426 0.171653 0.171653 2 1 0
2.21596 0.171502 0.171502 2 1 0
2.21767 0.171351 0.171351 2 1 0
2.21938 0.171201 0.171201 2 1 0
2.22108 0.17105 0.17105 2 1 0
