0.066316 0.356746 0.356746 2 1 0
0.0652311 0.356403 0.356403 2 1 0
0.0641387 0.356061 0.356061 2 1 0
0.0630384 0.355718 0.355718 2 1 0
0.0619296 0.355377 0.355377 2 1 0
0.0608121 0.355035 0.355035 2 1 0
0.0596853 0.354694 0.354694 2 1 0
0.0585487 0.354353 0.354353 2 1 0
0.0574019 0.354012 0.354012 2 1 0
0.0562443 0.353672 0.353672 2 1 0
0.0550751 0.353331 0.353331 2 1 0
0.0538938 0.352992 0.352992 2 1 0
0.0526996 0.352652 0.352652 2 1 0
0.0514918 0.352313 0.352313 2 1 0
0.0502693 0.351974 0.351974 2 1 0
0.0490314 0.351635 0.351635 2 1 0
0.0477769 0.351297 0.351297 2 1 0
0.0465046 0.350959 0.350959 2 1 0
0.0452133 0.350621 0.350621 2 1 0
0.0439015 0.350284 0.350284 2 1 0
0.0425676 0.349947 0.349947 2 1 0
0.0412097 0.34961 0.34961 2 1 0
0.0398257 0.349274 0.349274 2 1 0
0.0384134 0.348938 0.348938 2 1 0
0.0369698 0.348603 0.348603 2 1 0
0.0354919 0.348268 0.348268 2 1 0
0.0339758 0.347933 0.347933 2 1 0
0.0324173 0.347599 0.347599 2 1 0
0.0308109 0.347266 0.347266 2 1 0
0.0291501 0.346933 0.346933 2 1 0
0.027427 0.3466 0.3466 2 1 0
0.0256314 0.346268 0.346268 2 1 0
0.0237501 0.345937 0.345937 2 1 0
0.0217654 0.345607 0.345607 2 1 0
0.019653 0.345279 0.345279 2 1 0
0.0173768 0.344951 0.344951 2 1 0
0.0148804 0.344626 0.344626 2 1 0
0.0120644 0.344304 0.344304 2 1 0
0.00872105 0.343988 0.343988 2 1 0
0.00421123 0.343688 0.343688 2 1 0
0.000518861 0.343575 0.343575 2 1 0
0.000518861 0.343575 0.343575 2 1 0
0.101321 0.3689 0.3689 4 2 0
0.101321 0.373102 0.364708 3 2 0
0.10132 0.373695 0.364119 3 2 0
0.101317 0.382126 0.35578 3 2 0
0.101311 0.390609 0.34748 3 2 0
0.101301 0.399129 0.339235 3 2 0
0.101287 0.407672 0.331085 3 2 0
0.101268 0.416254 0.322974 3 2 0
0.101245 0.424854 0.314894 3 2 0
0.101216 0.433484 0.306939 3 2 0
0.101181 0.44213 0.299 3 2 0
0.101138 0.450785 0.291119 3 2 0
0.101087 0.459468 0.283402 3 2 0
0.101027 0.468139 0.275748 3 2 0
0.100955 0.476888 0.268059 3 2 0
0.100872 0.485663 0.26045 3 2 0
0.100776 0.494394 0.252993 3 2 0
0.100664 0.503268 0.245612 3 2 0
0.100536 0.512178 0.238075 3 2 0
0.100389 0.521088 0.230767 3 2 0
0.100222 0.530017 0.223527 3 2 0
0.100032 0.538783 0.216396 3 2 0
0.0998168 0.547726 0.209268 3 2 0
0.0995731 0.556823 0.202206 3 2 0
0.099298 0.566036 0.195331 3 2 0
0.098988 0.575168 0.18838 3 2 0
0.0986393 0.584327 0.18149 3 2 0
0.0982478 0.593258 0.174649 3 2 0
0.0978098 0.60253 0.167956 3 2 0
0.0973215 0.611826 0.161415 3 2 0
0.0967804 0.621026 0.155141 3 2 0
0.0961853 0.630272 0.148871 3 2 0
0.0955372 0.639547 0.142932 3 2 0
0.0948401 0.649282 0.137379 3 2 0
0.0941004 0.658687 0.131936 3 2 0
0.0933263 0.668131 0.127025 3 2 0
0.092527 0.677544 0.122334 3 2 0
0.0917116 0.68712 0.118212 3 2 0
0.0908881 0.696747 0.114184 3 2 0
0.0900628 0.706176 0.11059 3 2 0
0.0892407 0.715908 0.107232 3 2 0
0.0884253 0.725689 0.104334 3 2 0
0.0876191 0.735617 0.101477 3 2 0
0.0868236 0.745485 0.0987674 3 2 0
0.0860401 0.75539 0.0962992 3 2 0
0.0852691 0.765459 0.0940245 3 2 0
0.0845111 0.77539 0.0919875 3 2 0
0.0837663 0.78534 0.0900912 3 2 0
0.0830346 0.795172 0.088223 3 2 0
0.0823163 0.805131 0.0863462 3 2 0
0.0816111 0.815099 0.0846747 3 2 0
0.080919 0.824756 0.083193 3 2 0
0.0802398 0.834702 0.0816227 3 2 0
0.0795732 0.844648 0.080215 3 2 0
0.0789189 0.854633 0.0788475 3 2 0
0.078277 0.864577 0.0776175 3 2 0
0.0776469 0.874517 0.0763794 3 2 0
0.0770286 0.884878 0.0751843 3 2 0
0.0764216 0.894954 0.074092 3 2 0
0.0758257 0.905032 0.0730911 3 2 0
0.0752407 0.914963 0.0719849 3 2 0
0.0746662 0.925044 0.0710574 3 2 0
0.074102 0.935126 0.0700786 3 2 0
0.0735479 0.945873 0.0691804 3 2 0
0.0730035 0.955956 0.0682641 3 2 0
0.0724686 0.966041 0.0674252 3 2 0
0.0719431 0.976231 0.0663584 3 2 0
0.0714265 0.9863 0.0655929 3 2 0
0.0709187 0.99637 0.0648872 3 2 0
0.0704197 1.00647 0.0640104 3 2 0
0.0699289 1.01656 0.0633048 3 2 0
0.0694464 1.02666 0.0626605 3 2 0
0.068972 1.03595 0.0622644 3 2 0
0.0685053 1.04597 0.0616694 3 2 0
0.0680464 1.056 0.0608849 3 2 0
0.0675952 1.06699 0.0601589 3 2 0
0.0671511 1.07708 0.0596791 3 2 0
0.0667144 1.08717 0.0592021 3 2 0
0.0662849 1.09447 0.0586985 3 2 0
0.0658622 1.10441 0.0581201 3 2 0
0.0654464 1.11434 0.0574322 3 2 0
0.0650372 1.12701 0.0569522 3 2 0
0.0646348 1.13711 0.056317 3 2 0
0.0642389 1.1472 0.0557717 3 2 0
0.0638492 1.15723 0.0552051 3 2 0
0.063466 1.16726 0.0548292 3 2 0
0.063089 1.17727 0.0544194 3 2 0
0.062718 1.18625 0.0539556 3 2 0
0.0623531 1.19626 0.0535088 3 2 0
0.0619942 1.20627 0.0530898 3 2 0
0.0616411 1.21598 0.0526675 3 2 0
0.0612938 1.22594 0.0522796 3 2 0
0.0609522 1.23588 0.0519022 3 2 0
0.0606159 1.24741 0.0514485 3 2 0
0.060285 1.25735 0.0510896 3 2 0
0.0599598 1.26726 0.0507408 3 2 0
0.0596398 1.27735 0.0503613 3 2 0
0.0593247 1.2872 0.0500285 3 2 0
0.0590152 1.29701 0.0497045 3 2 0
0.0587107 1.30577 0.0493045 3 2 0
0.058411 1.31549 0.0489969 3 2 0
0.0581164 1.32518 0.0486993 3 2 0
0.0578266 1.334 0.0483337 3 2 0
0.0575415 1.34364 0.0480238 3 2 0
0.0572609 1.35324 0.0475161 3 2 0
0.0569848 1.36372 0.0463633 3 2 0
0.056713 1.37329 0.0461886 3 2 0
0.0564458 1.38281 0.0460639 3 2 0
0.0561827 1.39389 0.0454891 3 2 0
0.0559236 1.40339 0.0454771 3 2 0
0.0556689 1.41284 0.0454363 3 2 0
0.055417 1.42199 0.0426995 3 2 0
0.055167 1.43148 0.0430425 3 2 0
0.0549241 1.44081 0.0436355 3 2 0
0.0546851 1.45036 0.044857 3 2 0
0.0544487 1.45967 0.0446236 3 2 0
0.054217 1.46889 0.0444054 3 2 0
0.0539888 1.47865 0.0441658 3 2 0
0.0537639 1.48783 0.0439681 3 2 0
0.0535425 1.49696 0.0435418 3 2 0
0.0533244 1.50102 0.0432546 3 2 0
0.0531088 1.50999 0.0430189 3 2 0
0.0528972 1.51888 0.0424301 3 2 0
0.0526888 1.53063 0.0408489 3 2 0
0.052483 1.53952 0.0409959 3 2 0
0.0522805 1.54837 0.0411101 3 2 0
0.052081 1.55837 0.0400287 3 2 0
0.0518833 1.56723 0.0402182 3 2 0
0.0516893 1.57601 0.0403841 3 2 0
0.0514979 1.58583 0.0397907 3 2 0
0.0513083 1.5946 0.0400212 3 2 0
0.0511223 1.6033 0.0401703 3 2 0
0.0509386 1.6085 0.0397838 3 2 0
0.050756 1.6171 0.0399314 3 2 0
0.0505775 1.62558 0.0400109 3 2 0
0.0504011 1.63674 0.0403703 3 2 0
0.0502268 1.64525 0.0403509 3 2 0
0.0500553 1.65369 0.040356 3 2 0
0.0498858 1.6636 0.0378995 3 2 0
0.0497182 1.67207 0.0372416 3 2 0
0.0495531 1.68049 0.0367199 3 2 0
0.0493896 1.68812 0.0370192 3 2 0
0.0492241 1.69666 0.0366883 3 2 0
0.0490653 1.70492 0.0364897 3 2 0
0.0489086 1.70824 0.036776 3 2 0
0.0487513 1.71655 0.0367401 3 2 0
0.0485981 1.72471 0.0368086 3 2 0
0.0484466 1.73654 0.0370087 3 2 0
0.0482966 1.74472 0.0372569 3 2 0
0.0481488 1.75285 0.0375657 3 2 0
0.0480017 1.75774 0.034458 3 2 0
0.0478497 1.76621 0.0330122 3 2 0
0.0477074 1.77422 0.0321194 3 2 0
0.0475655 1.78743 0.0355231 3 2 0
0.0474195 1.7958 0.0345608 3 2 0
0.0472818 1.80376 0.0340374 3 2 0
0.0471448 1.81027 0.0353618 3 2 0
0.0469982 1.81882 0.0349673 3 2 0
0.0468652 1.82664 0.034859 3 2 0
0.0467333 1.83421 0.0350038 3 2 0
0.046601 1.84217 0.0351278 3 2 0
0.0464721 1.84998 0.0353019 3 2 0
0.0463446 1.85347 0.0349262 3 2 0
0.0462151 1.86138 0.0352015 3 2 0
0.0460903 1.86906 0.0353605 3 2 0
0.0459667 1.879 0.0350509 3 2 0
0.0458422 1.88671 0.0350963 3 2 0
0.045721 1.89427 0.0350707 3 2 0
0.0456013 1.90401 0.0351313 3 2 0
0.0454749 1.91204 0.0351114 3 2 0
0.0453575 1.91956 0.0351036 3 2 0
0.0452414 1.93021 0.0349248 3 2 0
0.0451253 1.93785 0.0349489 3 2 0
0.0450113 1.94542 0.0350066 3 2 0
0.0448982 1.95345 0.0343713 3 2 0
0.0447854 1.96102 0.0344685 3 2 0
0.0446746 1.96852 0.0346106 3 2 0
0.0445627 1.97596 0.0320592 3 2 0
0.0444504 1.98366 0.0321415 3 2 0
0.0443427 1.9911 0.0323032 3 2 0
0.0442364 1.99544 0.0343621 3 2 0
0.0441227 2.00338 0.0346922 3 2 0
0.0440179 2.01076 0.034437 3 2 0
0.0439133 2.01837 0.0305221 3 2 0
0.0438098 2.02578 0.0294481 3 2 0
0.0437076 2.03314 0.0285414 3 2 0
0.043607 2.04343 0.0276224 3 2 0
0.0435055 2.05081 0.0268875 3 2 0
0.0434059 2.0581 0.0263335 3 2 0
0.0433064 2.06504 0.0271531 3 2 0
0.0432026 2.07271 0.0272009 3 2 0
0.0431057 2.07991 0.0273843 3 2 0
0.0430098 2.0816 0.0277579 3 2 0
0.0429086 2.08907 0.0275527 3 2 0
0.042814 2.0961 0.0277163 3 2 0
0.0427202 2.1067 0.0260284 3 2 0
0.0426263 2.11392 0.0263564 3 2 0
0.0425339 2.12106 0.0269646 3 2 0
0.0424421 2.12908 0.0245944 3 2 0
0.0423502 2.13627 0.0252903 3 2 0
0.04226 2.14337 0.0262174 3 2 0
0.0421704 2.15081 0.0240808 3 2 0
0.0420789 2.15809 0.0251779 3 2 0
0.0419907 2.16515 0.0264275 3 2 0
0.0419028 2.1737 0.0217382 3 2 0
0.0418122 2.18104 0.022992 3 2 0
0.0417261 2.18805 0.0243829 3 2 0
0.0416406 2.19322 0.0229468 3 2 0
0.041554 2.2003 0.0245224 3 2 0
0.0414696 2.20723 0.0261923 3 2 0
0.0413863 2.20749 0.0138348 3 2 0
0.0412931 2.21521 0.0150953 3 2 0
0.0412107 2.22207 0.0164555 3 2 0
0.0411288 2.23489 0.0308157 3 2 0
0.0410397 2.24245 0.0301614 3 2 0
0.0409593 2.24929 0.0296569 3 2 0
0.0408795 2.25503 0.0278962 3 2 0
0.0407976 2.26201 0.0279774 3 2 0
0.0407187 2.26877 0.0282078 3 2 0
0.0406398 2.27922 0.0274241 3 2 0
0.0405553 2.28664 0.0264688 3 2 0
0.040478 2.29345 0.0259324 3 2 0
0.0404017 2.29504 0.0260821 3 2 0
0.0403216 2.30209 0.0252672 3 2 0
0.040246 2.30879 0.0248225 3 2 0
0.0401719 2.31413 0.026694 3 2 0
0.0400754 2.3227 0.0273879 3 2 0
0.0400016 2.32928 0.0279603 3 2 0
0.0399258 2.34311 0.02309 3 2 0
0.0398476 2.35034 0.0228103 3 2 0
0.0397753 2.35707 0.0228189 3 2 0
0.0397046 2.36159 0.0251138 3 2 0
0.0396292 2.3686 0.0258272 3 2 0
0.0395582 2.37524 0.0265588 3 2 0
0.0394878 2.38496 0.0248176 3 2 0
0.039416 2.39177 0.0255612 3 2 0
0.0393462 2.39843 0.0263203 3 2 0
0.0392763 2.39437 0.0224416 3 2 0
0.0392013 2.4015 0.0231904 3 2 0
0.0391327 2.40804 0.023976 3 2 0
0.0390635 2.42483 0.0215646 3 2 0
0.0389938 2.43166 0.022319 3 2 0
0.0389267 2.43824 0.0231423 3 2 0
0.0388624 2.44149 0.0280896 3 2 0
0.0387942 2.44815 0.0287388 3 2 0
0.0387285 2.45459 0.0292531 3 2 0
0.0386702 2.46291 0.0165867 3 2 0
0.0385801 2.4722 0.0155157 3 2 0
0.0385163 2.47888 0.015142 3 2 0
0.0384515 2.47383 0.0297895 3 2 0
0.0383397 2.48487 0.0276886 3 2 0
0.0382761 2.49121 0.0271883 3 2 0
0.0382252 2.50885 0.0183684 3 2 0
0.0381378 2.51813 0.0151729 3 2 0
0.0380802 2.52439 0.0133483 3 2 0
0.0380328 2.52313 0.023518 3 2 0
0.0377778 2.55007 0.0248017 3 2 0
0.0377173 2.55652 0.0267399 3 2 0
0.0376824 2.56304 0.0094144 3 2 0
0.0375667 2.57493 0.0100074 3 2 0
0.0375077 2.58058 0.0106953 3 2 0
nan nan nan 4 2 0
nan nan nan 4 2 0
nan nan nan 4 2 0
nan nan nan 4 2 0
nan nan nan 4 2 0
nan nan nan 4 2 0
0.2 0.40727 0.40727 2 1 0
0.200959 0.407643 0.407643 1 1 0
0.201919 0.408016 0.408016 1 1 0
0.202879 0.408389 0.408389 1 1 0
0.203841 0.408762 0.408762 1 1 0
0.204804 0.409136 0.409136 1 1 0
0.205768 0.409509 0.409509 1 1 0
0.206733 0.409883 0.409883 1 1 0
0.207698 0.410257 0.410257 1 1 0
0.208665 0.410631 0.410631 1 1 0
0.209633 0.411005 0.411005 1 1 0
0.210602 0.41138 0.41138 1 1 0
0.211572 0.411754 0.411754 1 1 0
0.212543 0.412129 0.412129 1 1 0
0.213515 0.412504 0.412504 1 1 0
0.214488 0.412879 0.412879 1 1 0
0.215463 0.413254 0.413254 1 1 0
0.216438 0.413629 0.413629 1 1 0
0.217414 0.414004 0.414004 1 1 0
0.218392 0.41438 0.41438 1 1 0
0.219371 0.414756 0.414756 1 1 0
0.22035 0.415132 0.415132 1 1 0
0.221331 0.415508 0.415508 1 1 0
0.222313 0.415884 0.415884 1 1 0
0.223296 0.41626 0.41626 1 1 0
0.224281 0.416637 0.416637 1 1 0
0.225266 0.417013 0.417013 1 1 0
0.226253 0.41739 0.41739 1 1 0
0.227241 0.417767 0.417767 1 1 0
0.22823 0.418144 0.418144 1 1 0
0.22922 0.418521 0.418521 1 1 0
0.230211 0.418898 0.418898 1 1 0
0.231204 0.419276 0.419276 1 1 0
0.232197 0.419653 0.419653 1 1 0
0.233192 0.420031 0.420031 1 1 0
0.234188 0.420409 0.420409 1 1 0
0.235186 0.420787 0.420787 1 1 0
0.236184 0.421165 0.421165 1 1 0
0.237184 0.421543 0.421543 1 1 0
0.238185 0.421922 0.421922 1 1 0
0.239187 0.4223 0.4223 1 1 0
0.240191 0.422679 0.422679 1 1 0
0.241195 0.423058 0.423058 1 1 0
0.242201 0.423437 0.423437 1 1 0
0.243208 0.423816 0.423816 1 1 0
0.244217 0.424195 0.424195 1 1 0
0.245227 0.424574 0.424574 1 1 0
0.246238 0.424953 0.424953 1 1 0
0.24725 0.425333 0.425333 1 1 0
0.248263 0.425713 0.425713 1 1 0
0.249278 0.426092 0.426092 1 1 0
0.250294 0.426472 0.426472 1 1 0
0.251312 0.426852 0.426852 1 1 0
0.252331 0.427233 0.427233 1 1 0
0.253351 0.427613 0.427613 1 1 0
0.254372 0.427993 0.427993 1 1 0
0.255395 0.428374 0.428374 1 1 0
0.256419 0.428754 0.428754 1 1 0
0.257444 0.429135 0.429135 1 1 0
0.25847 0.429516 0.429516 1 1 0
0.259498 0.429897 0.429897 1 1 0
0.260528 0.430278 0.430278 1 1 0
0.261558 0.430659 0.430659 1 1 0
0.26259 0.43104 0.43104 1 1 0
0.263624 0.431422 0.431422 1 1 0
0.264658 0.431803 0.431803 1 1 0
0.265694 0.432185 0.432185 1 1 0
0.266732 0.432567 0.432567 1 1 0
0.267771 0.432949 0.432949 1 1 0
0.268811 0.43333 0.43333 1 1 0
0.269852 0.433713 0.433713 1 1 0
0.270895 0.434095 0.434095 1 1 0
0.271939 0.434477 0.434477 1 1 0
0.272985 0.434859 0.434859 1 1 0
0.274032 0.435242 0.435242 1 1 0
0.27508 0.435624 0.435624 1 1 0
0.27613 0.436007 0.436007 1 1 0
0.277182 0.43639 0.43639 1 1 0
0.278234 0.436773 0.436773 1 1 0
0.279288 0.437155 0.437155 1 1 0
0.280344 0.437538 0.437538 1 1 0
0.2814 0.437922 0.437922 1 1 0
0.282459 0.438305 0.438305 1 1 0
0.283518 0.438688 0.438688 1 1 0
0.28458 0.439072 0.439072 1 1 0
0.285642 0.439455 0.439455 1 1 0
0.286706 0.439839 0.439839 1 1 0
0.287772 0.440222 0.440222 1 1 0
0.288838 0.440606 0.440606 1 1 0
0.289907 0.44099 0.44099 1 1 0
0.290976 0.441374 0.441374 1 1 0
0.292048 0.441758 0.441758 1 1 0
0.29312 0.442142 0.442142 1 1 0
0.294194 0.442526 0.442526 1 1 0
0.29527 0.44291 0.44291 1 1 0
0.296347 0.443295 0.443295 1 1 0
0.297425 0.443679 0.443679 1 1 0
0.298505 0.444064 0.444064 1 1 0
0.299587 0.444448 0.444448 1 1 0
0.300669 0.444833 0.444833 1 1 0
0.301754 0.445218 0.445218 1 1 0
0.30284 0.445602 0.445602 1 1 0
0.303927 0.445987 0.445987 1 1 0
0.305016 0.446372 0.446372 1 1 0
0.306106 0.446757 0.446757 1 1 0
0.307198 0.447142 0.447142 1 1 0
0.308291 0.447528 0.447528 1 1 0
0.309385 0.447913 0.447913 1 1 0
0.310482 0.448298 0.448298 1 1 0
0.311579 0.448683 0.448683 1 1 0
0.312679 0.449069 0.449069 1 1 0
0.313779 0.449454 0.449454 1 1 0
0.314881 0.44984 0.44984 1 1 0
0.315985 0.450225 0.450225 1 1 0
0.31709 0.450611 0.450611 1 1 0
0.318197 0.450997 0.450997 1 1 0
0.319305 0.451383 0.451383 1 1 0
0.320415 0.451769 0.451769 1 1 0
0.321526 0.452154 0.452154 1 1 0
0.322639 0.45254 0.45254 1 1 0
0.323753 0.452926 0.452926 1 1 0
0.324869 0.453313 0.453313 1 1 0
0.325986 0.453699 0.453699 1 1 0
0.327105 0.454085 0.454085 1 1 0
0.328226 0.454471 0.454471 1 1 0
0.329348 0.454857 0.454857 1 1 0
0.330471 0.455244 0.455244 1 1 0
0.331596 0.45563 0.45563 1 1 0
0.332723 0.456016 0.456016 1 1 0
0.333851 0.456403 0.456403 1 1 0
0.33498 0.456789 0.456789 1 1 0
0.336111 0.457176 0.457176 1 1 0
0.337244 0.457563 0.457563 1 1 0
0.338378 0.457949 0.457949 1 1 0
0.339514 0.458336 0.458336 1 1 0
0.340651 0.458723 0.458723 1 1 0
0.34179 0.459109 0.459109 1 1 0
0.342931 0.459496 0.459496 1 1 0
0.344073 0.459883 0.459883 1 1 0
0.345216 0.46027 0.46027 1 1 0
0.346361 0.460657 0.460657 1 1 0
0.347508 0.461044 0.461044 1 1 0
0.348656 0.461431 0.461431 1 1 0
0.349806 0.461818 0.461818 1 1 0
0.350957 0.462205 0.462205 1 1 0
0.35211 0.462592 0.462592 1 1 0
0.353264 0.462979 0.462979 1 1 0
0.35442 0.463366 0.463366 1 1 0
0.355578 0.463753 0.463753 1 1 0
0.356737 0.46414 0.46414 1 1 0
0.357898 0.464527 0.464527 1 1 0
0.35906 0.464914 0.464914 1 1 0
0.360224 0.465302 0.465302 1 1 0
0.361389 0.465689 0.465689 1 1 0
0.362556 0.466076 0.466076 1 1 0
0.363725 0.466463 0.466463 1 1 0
0.364895 0.466851 0.466851 1 1 0
0.366067 0.467238 0.467238 1 1 0
0.36724 0.467625 0.467625 1 1 0
0.368415 0.468012 0.468012 1 1 0
0.369591 0.4684 0.4684 1 1 0
0.370769 0.468787 0.468787 1 1 0
0.371949 0.469174 0.469174 1 1 0
0.37313 0.469562 0.469562 1 1 0
0.374313 0.469949 0.469949 1 1 0
0.375497 0.470337 0.470337 1 1 0
0.376683 0.470724 0.470724 1 1 0
0.37787 0.471111 0.471111 1 1 0
0.379059 0.471499 0.471499 1 1 0
0.38025 0.471886 0.471886 1 1 0
0.381442 0.472273 0.472273 1 1 0
0.382636 0.472661 0.472661 1 1 0
0.383832 0.473048 0.473048 1 1 0
0.385029 0.473436 0.473436 1 1 0
0.386227 0.473823 0.473823 1 1 0
0.387427 0.47421 0.47421 1 1 0
0.388629 0.474598 0.474598 1 1 0
0.389833 0.474985 0.474985 1 1 0
0.391038 0.475372 0.475372 1 1 0
0.392244 0.47576 0.47576 1 1 0
0.393452 0.476147 0.476147 1 1 0
0.394662 0.476534 0.476534 1 1 0
0.395873 0.476922 0.476922 1 1 0
0.397086 0.477309 0.477309 1 1 0
0.398301 0.477696 0.477696 1 1 0
0.399517 0.478083 0.478083 1 1 0
0.400734 0.478471 0.478471 1 1 0
0.401954 0.478858 0.478858 1 1 0
0.403175 0.479245 0.479245 1 1 0
0.404397 0.479632 0.479632 1 1 0
0.405621 0.480019 0.480019 1 1 0
0.406847 0.480406 0.480406 1 1 0
0.408074 0.480793 0.480793 1 1 0
0.409303 0.48118 0.48118 1 1 0
0.410533 0.481567 0.481567 1 1 0
0.411765 0.481955 0.481955 1 1 0
0.412999 0.482341 0.482341 1 1 0
0.414234 0.482728 0.482728 1 1 0
0.415471 0.483115 0.483115 1 1 0
0.416709 0.483502 0.483502 1 1 0
0.417949 0.483889 0.483889 1 1 0
0.419191 0.484276 0.484276 1 1 0
0.420434 0.484663 0.484663 1 1 0
0.421679 0.485049 0.485049 1 1 0
0.422925 0.485436 0.485436 1 1 0
0.424173 0.485823 0.485823 1 1 0
0.425423 0.486209 0.486209 1 1 0
0.426674 0.486596 0.486596 1 1 0
0.427926 0.486982 0.486982 1 1 0
0.429181 0.487369 0.487369 1 1 0
0.430437 0.487755 0.487755 1 1 0
0.431694 0.488142 0.488142 1 1 0
0.432953 0.488528 0.488528 1 1 0
0.434214 0.488914 0.488914 1 1 0
0.435476 0.4893 0.4893 1 1 0
0.43674 0.489687 0.489687 1 1 0
0.438005 0.490073 0.490073 1 1 0
0.439272 0.490459 0.490459 1 1 0
0.440541 0.490845 0.490845 1 1 0
0.441811 0.491231 0.491231 1 1 0
0.443083 0.491617 0.491617 1 1 0
0.444356 0.492002 0.492002 1 1 0
0.445631 0.492388 0.492388 1 1 0
0.446908 0.492774 0.492774 1 1 0
0.448186 0.49316 0.49316 1 1 0
0.449466 0.493545 0.493545 1 1 0
0.450747 0.493931 0.493931 1 1 0
0.45203 0.494316 0.494316 1 1 0
0.453314 0.494702 0.494702 1 1 0
0.4546 0.495087 0.495087 1 1 0
0.455888 0.495472 0.495472 1 1 0
0.457177 0.495857 0.495857 1 1 0
0.458468 0.496242 0.496242 1 1 0
0.45976 0.496627 0.496627 1 1 0
0.461054 0.497012 0.497012 1 1 0
0.462349 0.497397 0.497397 1 1 0
0.463646 0.497782 0.497782 1 1 0
0.464945 0.498167 0.498167 1 1 0
0.466245 0.498551 0.498551 1 1 0
0.467547 0.498936 0.498936 1 1 0
0.46885 0.49932 0.49932 1 1 0
0.470155 0.499705 0.499705 1 1 0
0.471462 0.500089 0.500089 1 1 0
0.47277 0.500473 0.500473 1 1 0
0.474079 0.500857 0.500857 1 1 0
0.47539 0.501241 0.501241 1 1 0
0.476703 0.501625 0.501625 1 1 0
0.478017 0.502009 0.502009 1 1 0
0.479333 0.502393 0.502393 1 1 0
0.480651 0.502776 0.502776 1 1 0
0.48197 0.50316 0.50316 1 1 0
0.48329 0.503543 0.503543 1 1 0
0.484612 0.503927 0.503927 1 1 0
0.485936 0.50431 0.50431 1 1 0
0.487261 0.504693 0.504693 1 1 0
0.488588 0.505076 0.505076 1 1 0
0.489916 0.505459 0.505459 1 1 0
0.491246 0.505842 0.505842 1 1 0
0.492577 0.506225 0.506225 1 1 0
0.49391 0.506608 0.506608 1 1 0
0.495245 0.50699 0.50699 1 1 0
0.496581 0.507373 0.507373 1 1 0
0.497918 0.507755 0.507755 1 1 0
0.499257 0.508137 0.508137 1 1 0
0.500598 0.508519 0.508519 1 1 0
0.50194 0.508901 0.508901 1 1 0
0.503284 0.509283 0.509283 1 1 0
0.504629 0.509665 0.509665 1 1 0
0.505976 0.510046 0.510046 1 1 0
0.507324 0.510428 0.510428 1 1 0
0.508674 0.510809 0.510809 1 1 0
0.510025 0.511191 0.511191 1 1 0
0.511378 0.511572 0.511572 1 1 0
0.512732 0.511953 0.511953 1 1 0
0.514088 0.512334 0.512334 1 1 0
0.515446 0.512714 0.512714 1 1 0
0.516805 0.513095 0.513095 1 1 0
0.518165 0.513476 0.513476 1 1 0
0.519527 0.513856 0.513856 1 1 0
0.520891 0.514236 0.514236 1 1 0
0.522256 0.514616 0.514616 1 1 0
0.523622 0.514996 0.514996 1 1 0
0.52499 0.515376 0.515376 1 1 0
0.52636 0.515756 0.515756 1 1 0
0.527731 0.516136 0.516136 1 1 0
0.529103 0.516515 0.516515 1 1 0
0.530478 0.516894 0.516894 1 1 0
0.531853 0.517273 0.517273 1 1 0
0.53323 0.517652 0.517652 1 1 0
0.534609 0.518031 0.518031 1 1 0
0.535989 0.51841 0.51841 1 1 0
0.53737 0.518789 0.518789 1 1 0
0.538753 0.519167 0.519167 1 1 0
0.540138 0.519545 0.519545 1 1 0
0.541524 0.519924 0.519924 1 1 0
0.542911 0.520302 0.520302 1 1 0
0.5443 0.520679 0.520679 1 1 0
0.545691 0.521057 0.521057 1 1 0
0.547082 0.521435 0.521435 1 1 0
0.548476 0.521812 0.521812 1 1 0
0.549871 0.522189 0.522189 1 1 0
0.551267 0.522566 0.522566 1 1 0
0.552665 0.522943 0.522943 1 1 0
0.554064 0.52332 0.52332 1 1 0
0.555465 0.523696 0.523696 1 1 0
0.556867 0.524073 0.524073 1 1 0
0.558271 0.524449 0.524449 1 1 0
0.559676 0.524825 0.524825 1 1 0
0.561082 0.525201 0.525201 1 1 0
0.56249 0.525577 0.525577 1 1 0
0.5639 0.525952 0.525952 1 1 0
0.56531 0.526328 0.526328 1 1 0
0.566723 0.526703 0.526703 1 1 0
0.568137 0.527078 0.527078 1 1 0
0.569552 0.527453 0.527453 1 1 0
0.570968 0.527828 0.527828 1 1 0
0.572387 0.528202 0.528202 1 1 0
0.573806 0.528577 0.528577 1 1 0
0.575227 0.528951 0.528951 1 1 0
0.576649 0.529325 0.529325 1 1 0
0.578073 0.529699 0.529699 1 1 0
0.579498 0.530072 0.530072 1 1 0
0.580925 0.530446 0.530446 1 1 0
0.582353 0.530819 0.530819 1 1 0
0.583783 0.531192 0.531192 1 1 0
0.585214 0.531565 0.531565 1 1 0
0.586646 0.531937 0.531937 1 1 0
0.58808 0.53231 0.53231 1 1 0
0.589515 0.532682 0.532682 1 1 0
0.590951 0.533054 0.533054 1 1 0
0.592389 0.533426 0.533426 1 1 0
0.593829 0.533798 0.533798 1 1 0
0.595269 0.53417 0.53417 1 1 0
0.596711 0.534541 0.534541 1 1 0
0.598155 0.534912 0.534912 1 1 0
0.5996 0.535283 0.535283 1 1 0
0.601046 0.535654 0.535654 1 1 0
0.602494 0.536024 0.536024 1 1 0
0.603943 0.536395 0.536395 1 1 0
0.605393 0.536765 0.536765 1 1 0
0.606845 0.537135 0.537135 1 1 0
0.608298 0.537504 0.537504 1 1 0
0.609753 0.537874 0.537874 1 1 0
0.611209 0.538243 0.538243 1 1 0
0.612666 0.538612 0.538612 1 1 0
0.614125 0.538981 0.538981 1 1 0
0.615585 0.53935 0.53935 1 1 0
0.617046 0.539718 0.539718 1 1 0
0.618509 0.540086 0.540086 1 1 0
0.619973 0.540454 0.540454 1 1 0
0.621438 0.540822 0.540822 1 1 0
0.622905 0.54119 0.54119 1 1 0
0.624373 0.541557 0.541557 1 1 0
0.625842 0.541924 0.541924 1 1 0
0.627313 0.542291 0.542291 1 1 0
0.628785 0.542658 0.542658 1 1 0
0.630258 0.543024 0.543024 1 1 0
0.631733 0.54339 0.54339 1 1 0
0.633209 0.543756 0.543756 1 1 0
0.634687 0.544122 0.544122 1 1 0
0.636165 0.544487 0.544487 1 1 0
0.637645 0.544853 0.544853 1 1 0
0.639127 0.545218 0.545218 1 1 0
0.640609 0.545583 0.545583 1 1 0
0.642093 0.545947 0.545947 1 1 0
0.643578 0.546312 0.546312 1 1 0
0.645065 0.546676 0.546676 1 1 0
0.646553 0.54704 0.54704 1 1 0
0.648042 0.547403 0.547403 1 1 0
0.649532 0.547767 0.547767 1 1 0
0.651024 0.54813 0.54813 1 1 0
0.652517 0.548493 0.548493 1 1 0
0.654011 0.548855 0.548855 1 1 0
0.655507 0.549218 0.549218 1 1 0
0.657004 0.54958 0.54958 1 1 0
0.658502 0.549942 0.549942 1 1 0
0.660001 0.550303 0.550303 1 1 0
0.661502 0.550665 0.550665 1 1 0
0.663004 0.551026 0.551026 1 1 0
0.664507 0.551387 0.551387 1 1 0
0.666011 0.551748 0.551748 1 1 0
0.667517 0.552108 0.552108 1 1 0
0.669024 0.552468 0.552468 1 1 0
0.670532 0.552828 0.552828 1 1 0
0.672041 0.553188 0.553188 1 1 0
0.673552 0.553547 0.553547 1 1 0
0.675064 0.553906 0.553906 1 1 0
0.676577 0.554265 0.554265 1 1 0
0.678091 0.554623 0.554623 1 1 0
0.679607 0.554982 0.554982 1 1 0
0.681124 0.55534 0.55534 1 1 0
0.682642 0.555698 0.555698 1 1 0
0.684161 0.556055 0.556055 1 1 0
0.685682 0.556412 0.556412 1 1 0
0.687203 0.556769 0.556769 1 1 0
0.688726 0.557126 0.557126 1 1 0
0.69025 0.557482 0.557482 1 1 0
0.691776 0.557839 0.557839 1 1 0
0.693302 0.558194 0.558194 1 1 0
0.69483 0.55855 0.55855 1 1 0
0.696359 0.558905 0.558905 1 1 0
0.697889 0.55926 0.55926 1 1 0
0.69942 0.559615 0.559615 1 1 0
0.700953 0.55997 0.55997 1 1 0
0.702486 0.560324 0.560324 1 1 0
0.704021 0.560678 0.560678 1 1 0
0.705557 0.561031 0.561031 1 1 0
0.707094 0.561385 0.561385 1 1 0
0.708633 0.561738 0.561738 1 1 0
0.710172 0.56209 0.56209 1 1 0
0.711713 0.562443 0.562443 1 1 0
0.713255 0.562795 0.562795 1 1 0
0.714798 0.563147 0.563147 1 1 0
0.716342 0.563499 0.563499 1 1 0
0.717887 0.56385 0.56385 1 1 0
0.719433 0.564201 0.564201 1 1 0
0.720981 0.564552 0.564552 1 1 0
0.72253 0.564902 0.564902 1 1 0
0.72408 0.565252 0.565252 1 1 0
0.725631 0.565602 0.565602 1 1 0
0.727183 0.565952 0.565952 1 1 0
0.728736 0.566301 0.566301 1 1 0
0.73029 0.56665 0.56665 1 1 0
0.731846 0.566998 0.566998 1 1 0
0.733402 0.567347 0.567347 1 1 0
0.73496 0.567695 0.567695 1 1 0
0.736519 0.568042 0.568042 1 1 0
0.738079 0.56839 0.56839 1 1 0
0.73964 0.568737 0.568737 1 1 0
0.741202 0.569084 0.569084 1 1 0
0.742765 0.56943 0.56943 1 1 0
0.74433 0.569776 0.569776 1 1 0
0.745895 0.570122 0.570122 1 1 0
0.747461 0.570467 0.570467 1 1 0
0.749029 0.570813 0.570813 1 1 0
0.750598 0.571158 0.571158 1 1 0
0.752167 0.571502 0.571502 1 1 0
0.753738 0.571846 0.571846 1 1 0
0.75531 0.57219 0.57219 1 1 0
0.756883 0.572534 0.572534 1 1 0
0.758457 0.572877 0.572877 1 1 0
0.760032 0.57322 0.57322 1 1 0
0.761608 0.573563 0.573563 1 1 0
0.763185 0.573905 0.573905 1 1 0
0.764764 0.574247 0.574247 1 1 0
0.766343 0.574589 0.574589 1 1 0
0.767923 0.57493 0.57493 1 1 0
0.769505 0.575271 0.575271 1 1 0
0.771087 0.575612 0.575612 1 1 0
0.77267 0.575952 0.575952 1 1 0
0.774255 0.576292 0.576292 1 1 0
0.77584 0.576632 0.576632 1 1 0
0.777427 0.576971 0.576971 1 1 0
0.779014 0.57731 0.57731 1 1 0
0.780603 0.577649 0.577649 1 1 0
0.782193 0.577987 0.577987 1 1 0
0.783783 0.578325 0.578325 1 1 0
0.785375 0.578663 0.578663 1 1 0
0.786967 0.579 0.579 1 1 0
0.788561 0.579337 0.579337 1 1 0
0.790156 0.579674 0.579674 1 1 0
0.791751 0.58001 0.58001 1 1 0
0.793348 0.580346 0.580346 1 1 0
0.794945 0.580682 0.580682 1 1 0
0.796544 0.581017 0.581017 1 1 0
0.798143 0.581352 0.581352 1 1 0
0.799744 0.581686 0.581686 1 1 0
0.801345 0.582021 0.582021 1 1 0
0.802948 0.582354 0.582354 1 1 0
0.804551 0.582688 0.582688 1 1 0
0.806156 0.583021 0.583021 1 1 0
0.807761 0.583354 0.583354 1 1 0
0.809367 0.583686 0.583686 1 1 0
0.810975 0.584018 0.584018 1 1 0
0.812583 0.58435 0.58435 1 1 0
0.814192 0.584681 0.584681 1 1 0
0.815802 0.585012 0.585012 1 1 0
0.817413 0.585343 0.585343 1 1 0
0.819025 0.585673 0.585673 1 1 0
0.820638 0.586003 0.586003 1 1 0
0.822252 0.586333 0.586333 1 1 0
0.823867 0.586662 0.586662 1 1 0
0.825483 0.586991 0.586991 1 1 0
0.827099 0.58732 0.58732 1 1 0
0.828717 0.587648 0.587648 1 1 0
0.830335 0.587975 0.587975 1 1 0
0.831955 0.588303 0.588303 1 1 0
0.833575 0.58863 0.58863 1 1 0
0.835196 0.588956 0.588956 1 1 0
0.836818 0.589283 0.589283 1 1 0
0.838441 0.589609 0.589609 1 1 0
0.840065 0.589934 0.589934 1 1 0
0.84169 0.590259 0.590259 1 1 0
0.843316 0.590584 0.590584 1 1 0
0.844942 0.590908 0.590908 1 1 0
0.84657 0.591232 0.591232 1 1 0
0.848198 0.591556 0.591556 1 1 0
0.849828 0.591879 0.591879 1 1 0
0.851458 0.592202 0.592202 1 1 0
0.853089 0.592525 0.592525 1 1 0
0.854721 0.592847 0.592847 1 1 0
0.856353 0.593169 0.593169 1 1 0
0.857987 0.59349 0.59349 1 1 0
0.859622 0.593811 0.593811 1 1 0
0.861257 0.594132 0.594132 1 1 0
0.862893 0.594452 0.594452 1 1 0
0.86453 0.594772 0.594772 1 1 0
0.866168 0.595091 0.595091 1 1 0
0.867807 0.59541 0.59541 1 1 0
0.869447 0.595729 0.595729 1 1 0
0.871087 0.596047 0.596047 1 1 0
0.872728 0.596365 0.596365 1 1 0
0.87437 0.596683 0.596683 1 1 0
0.876013 0.597 0.597 1 1 0
0.877657 0.597316 0.597316 1 1 0
0.879302 0.597633 0.597633 1 1 0
0.880947 0.597949 0.597949 1 1 0
0.882593 0.598264 0.598264 1 1 0
0.88424 0.598579 0.598579 1 1 0
0.885888 0.598894 0.598894 1 1 0
0.887537 0.599209 0.599209 1 1 0
0.889187 0.599522 0.599522 1 1 0
0.890837 0.599836 0.599836 1 1 0
0.892488 0.600149 0.600149 1 1 0
0.89414 0.600462 0.600462 1 1 0
0.895793 0.600774 0.600774 1 1 0
0.897446 0.601086 0.601086 1 1 0
0.899101 0.601398 0.601398 1 1 0
0.900756 0.601709 0.601709 1 1 0
0.902412 0.60202 0.60202 1 1 0
0.904068 0.60233 0.60233 1 1 0
0.905726 0.60264 0.60264 1 1 0
0.907384 0.602949 0.602949 1 1 0
0.909043 0.603258 0.603258 1 1 0
0.910703 0.603567 0.603567 1 1 0
0.912363 0.603875 0.603875 1 1 0
0.914025 0.604183 0.604183 1 1 0
0.915687 0.604491 0.604491 1 1 0
0.91735 0.604798 0.604798 1 1 0
0.919013 0.605105 0.605105 1 1 0
0.920678 0.605411 0.605411 1 1 0
0.922343 0.605717 0.605717 1 1 0
0.924009 0.606022 0.606022 1 1 0
0.925675 0.606327 0.606327 1 1 0
0.927343 0.606632 0.606632 1 1 0
0.929011 0.606936 0.606936 1 1 0
0.93068 0.607239 0.607239 1 1 0
0.932349 0.607543 0.607543 1 1 0
0.93402 0.607846 0.607846 1 1 0
0.935691 0.608148 0.608148 1 1 0
0.937362 0.60845 0.60845 1 1 0
0.939035 0.608752 0.608752 1 1 0
0.940708 0.609053 0.609053 1 1 0
0.942382 0.609354 0.609354 1 1 0
0.944057 0.609654 0.609654 1 1 0
0.945732 0.609954 0.609954 1 1 0
0.947409 0.610254 0.610254 1 1 0
0.949085 0.610553 0.610553 1 1 0
0.950763 0.610851 0.610851 1 1 0
0.952441 0.61115 0.61115 1 1 0
0.95412 0.611447 0.611447 1 1 0
0.9558 0.611745 0.611745 1 1 0
0.95748 0.612042 0.612042 1 1 0
0.959162 0.612338 0.612338 1 1 0
0.960843 0.612634 0.612634 1 1 0
0.962526 0.61293 0.61293 1 1 0
0.964209 0.613225 0.613225 1 1 0
0.965893 0.61352 0.61352 1 1 0
0.967578 0.613814 0.613814 1 1 0
0.969263 0.614108 0.614108 1 1 0
0.970949 0.614402 0.614402 1 1 0
0.972636 0.614695 0.614695 1 1 0
0.974323 0.614988 0.614988 1 1 0
0.976011 0.61528 0.61528 1 1 0
0.9777 0.615572 0.615572 1 1 0
0.979389 0.615863 0.615863 1 1 0
0.981079 0.616154 0.616154 1 1 0
0.98277 0.616444 0.616444 1 1 0
0.984461 0.616734 0.616734 1 1 0
0.986153 0.617024 0.617024 1 1 0
0.987846 0.617313 0.617313 1 1 0
0.989539 0.617602 0.617602 1 1 0
0.991233 0.61789 0.61789 1 1 0
0.992928 0.618178 0.618178 1 1 0
0.994623 0.618465 0.618465 1 1 0
0.996319 0.618752 0.618752 1 1 0
0.998016 0.619038 0.619038 1 1 0
0.999713 0.619324 0.619324 1 1 0
1.00141 0.61961 0.61961 1 1 0
1.00311 0.619895 0.619895 1 1 0
1.00481 0.62018 0.62018 1 1 0
1.00651 0.620464 0.620464 1 1 0
1.00821 0.620748 0.620748 1 1 0
1.00991 0.621031 0.621031 1 1 0
1.01161 0.621314 0.621314 1 1 0
1.01331 0.621597 0.621597 1 1 0
1.01502 0.621879 0.621879 1 1 0
1.01672 0.62216 0.62216 1 1 0
1.01843 0.622441 0.622441 1 1 0
1.02013 0.622722 0.622722 1 1 0
1.02184 0.623002 0.623002 1 1 0
1.02354 0.623282 0.623282 1 1 0
1.02525 0.623561 0.623561 1 1 0
1.02696 0.62384 0.62384 1 1 0
1.02866 0.624118 0.624118 1 1 0
1.03037 0.624396 0.624396 1 1 0
1.03208 0.624674 0.624674 1 1 0
1.03379 0.624951 0.624951 1 1 0
1.0355 0.625227 0.625227 1 1 0
1.03721 0.625503 0.625503 1 1 0
1.03893 0.625779 0.625779 1 1 0
1.04064 0.626054 0.626054 1 1 0
1.04235 0.626329 0.626329 1 1 0
1.04407 0.626603 0.626603 1 1 0
1.04578 0.626877 0.626877 1 1 0
1.04749 0.62715 0.62715 1 1 0
1.04921 0.627423 0.627423 1 1 0
1.05093 0.627696 0.627696 1 1 0
1.05264 0.627968 0.627968 1 1 0
1.05436 0.628239 0.628239 1 1 0
1.05608 0.62851 0.62851 1 1 0
1.0578 0.628781 0.628781 1 1 0
1.05951 0.629051 0.629051 1 1 0
1.06123 0.629321 0.629321 1 1 0
1.06295 0.62959 0.62959 1 1 0
1.06468 0.629859 0.629859 1 1 0
1.0664 0.630127 0.630127 1 1 0
1.06812 0.630395 0.630395 1 1 0
1.06984 0.630662 0.630662 1 1 0
1.07156 0.630929 0.630929 1 1 0
1.07329 0.631196 0.631196 1 1 0
1.07501 0.631462 0.631462 1 1 0
1.07674 0.631727 0.631727 1 1 0
1.07846 0.631992 0.631992 1 1 0
1.08019 0.632257 0.632257 1 1 0
1.08192 0.632521 0.632521 1 1 0
1.08364 0.632784 0.632784 1 1 0
1.08537 0.633048 0.633048 1 1 0
1.0871 0.63331 0.63331 1 1 0
1.08883 0.633572 0.633572 1 1 0
1.09056 0.633834 0.633834 1 1 0
1.09229 0.634096 0.634096 1 1 0
1.09402 0.634356 0.634356 1 1 0
1.09575 0.634617 0.634617 1 1 0
1.09748 0.634877 0.634877 1 1 0
1.09921 0.635136 0.635136 1 1 0
1.10095 0.635395 0.635395 1 1 0
1.10268 0.635653 0.635653 1 1 0
1.10441 0.635911 0.635911 1 1 0
1.10615 0.636169 0.636169 1 1 0
1.10788 0.636426 0.636426 1 1 0
1.10962 0.636682 0.636682 1 1 0
1.11136 0.636939 0.636939 1 1 0
1.11309 0.637194 0.637194 1 1 0
1.11483 0.637449 0.637449 1 1 0
1.11657 0.637704 0.637704 1 1 0
1.11831 0.637958 0.637958 1 1 0
1.12005 0.638212 0.638212 1 1 0
1.12179 0.638465 0.638465 1 1 0
1.12353 0.638718 0.638718 1 1 0
1.12527 0.63897 0.63897 1 1 0
1.12701 0.639222 0.639222 1 1 0
1.12875 0.639474 0.639474 1 1 0
1.13049 0.639724 0.639724 1 1 0
1.13224 0.639975 0.639975 1 1 0
1.13398 0.640225 0.640225 1 1 0
1.13572 0.640474 0.640474 1 1 0
1.13747 0.640723 0.640723 1 1 0
1.13921 0.640972 0.640972 1 1 0
1.14096 0.64122 0.64122 1 1 0
1.14271 0.641467 0.641467 1 1 0
1.14445 0.641714 0.641714 1 1 0
1.1462 0.641961 0.641961 1 1 0
1.14795 0.642207 0.642207 1 1 0
1.1497 0.642453 0.642453 1 1 0
1.15145 0.642698 0.642698 1 1 0
1.1532 0.642942 0.642942 1 1 0
1.15495 0.643187 0.643187 1 1 0
1.1567 0.64343 0.64343 1 1 0
1.15845 0.643673 0.643673 1 1 0
1.1602 0.643916 0.643916 1 1 0
1.16195 0.644159 0.644159 1 1 0
1.16371 0.6444 0.6444 1 1 0
1.16546 0.644642 0.644642 1 1 0
1.16721 0.644882 0.644882 1 1 0
1.16897 0.645123 0.645123 1 1 0
1.17072 0.645363 0.645363 1 1 0
1.17248 0.645602 0.645602 1 1 0
1.17424 0.645841 0.645841 1 1 0
1.17599 0.646079 0.646079 1 1 0
1.17775 0.646317 0.646317 1 1 0
1.17951 0.646555 0.646555 1 1 0
1.18127 0.646792 0.646792 1 1 0
1.18303 0.647028 0.647028 1 1 0
1.18479 0.647264 0.647264 1 1 0
1.18655 0.6475 0.6475 1 1 0
1.18831 0.647735 0.647735 1 1 0
1.19007 0.647969 0.647969 1 1 0
1.19183 0.648203 0.648203 1 1 0
1.1936 0.648437 0.648437 1 1 0
1.19536 0.64867 0.64867 1 1 0
1.19712 0.648903 0.648903 1 1 0
1.19889 0.649135 0.649135 1 1 0
1.20065 0.649367 0.649367 1 1 0
1.20242 0.649598 0.649598 1 1 0
1.20418 0.649828 0.649828 1 1 0
1.20595 0.650059 0.650059 1 1 0
1.20772 0.650288 0.650288 1 1 0
1.20948 0.650518 0.650518 1 1 0
1.21125 0.650746 0.650746 1 1 0
1.21302 0.650975 0.650975 1 1 0
1.21479 0.651202 0.651202 1 1 0
1.21656 0.65143 0.65143 1 1 0
1.21833 0.651657 0.651657 1 1 0
1.2201 0.651883 0.651883 1 1 0
1.22187 0.652109 0.652109 1 1 0
1.22365 0.652334 0.652334 1 1 0
1.22542 0.652559 0.652559 1 1 0
1.22719 0.652783 0.652783 1 1 0
1.22897 0.653007 0.653007 1 1 0
1.23074 0.653231 0.653231 1 1 0
1.23252 0.653454 0.653454 1 1 0
1.23429 0.653676 0.653676 1 1 0
1.23607 0.653898 0.653898 1 1 0
1.23785 0.65412 0.65412 1 1 0
1.23962 0.654341 0.654341 1 1 0
1.2414 0.654561 0.654561 1 1 0
1.24318 0.654781 0.654781 1 1 0
1.24496 0.655001 0.655001 1 1 0
1.24674 0.65522 0.65522 1 1 0
1.24852 0.655438 0.655438 1 1 0
1.2503 0.655657 0.655657 1 1 0
1.25208 0.655874 0.655874 1 1 0
1.25387 0.656091 0.656091 1 1 0
1.25565 0.656308 0.656308 1 1 0
1.25743 0.656524 0.656524 1 1 0
1.25922 0.65674 0.65674 1 1 0
1.261 0.656955 0.656955 1 1 0
1.26279 0.65717 0.65717 1 1 0
1.26457 0.657384 0.657384 1 1 0
1.26636 0.657598 0.657598 1 1 0
1.26814 0.657811 0.657811 1 1 0
1.26993 0.658024 0.658024 1 1 0
1.27172 0.658236 0.658236 1 1 0
1.27351 0.658448 0.658448 1 1 0
1.2753 0.658659 0.658659 1 1 0
1.27709 0.65887 0.65887 1 1 0
1.27888 0.65908 0.65908 1 1 0
1.28067 0.65929 0.65929 1 1 0
1.28246 0.6595 0.6595 1 1 0
1.28426 0.659709 0.659709 1 1 0
1.28605 0.659917 0.659917 1 1 0
1.28784 0.660125 0.660125 1 1 0
1.28964 0.660332 0.660332 1 1 0
1.29143 0.660539 0.660539 1 1 0
1.29323 0.660746 0.660746 1 1 0
1.29502 0.660952 0.660952 1 1 0
1.29682 0.661157 0.661157 1 1 0
1.29862 0.661362 0.661362 1 1 0
1.30042 0.661567 0.661567 1 1 0
1.30222 0.661771 0.661771 1 1 0
1.30402 0.661975 0.661975 1 1 0
1.30582 0.662178 0.662178 1 1 0
1.30762 0.66238 0.66238 1 1 0
1.30942 0.662583 0.662583 1 1 0
1.31122 0.662784 0.662784 1 1 0
1.31302 0.662985 0.662985 1 1 0
1.31483 0.663186 0.663186 1 1 0
1.31663 0.663386 0.663386 1 1 0
1.31844 0.663586 0.663586 1 1 0
1.32024 0.663785 0.663785 1 1 0
1.32205 0.663984 0.663984 1 1 0
1.32385 0.664182 0.664182 1 1 0
1.32566 0.66438 0.66438 1 1 0
1.32747 0.664578 0.664578 1 1 0
1.32928 0.664774 0.664774 1 1 0
1.33109 0.664971 0.664971 1 1 0
1.3329 0.665167 0.665167 1 1 0
1.33471 0.665362 0.665362 1 1 0
1.33652 0.665557 0.665557 1 1 0
1.33833 0.665751 0.665751 1 1 0
1.34015 0.665945 0.665945 1 1 0
1.34196 0.666139 0.666139 1 1 0
1.34377 0.666332 0.666332 1 1 0
1.34559 0.666525 0.666525 1 1 0
1.34741 0.666717 0.666717 1 1 0
1.34922 0.666908 0.666908 1 1 0
1.35104 0.667099 0.667099 1 1 0
1.35286 0.66729 0.66729 1 1 0
1.35468 0.66748 0.66748 1 1 0
1.35649 0.66767 0.66767 1 1 0
1.35831 0.667859 0.667859 1 1 0
1.36014 0.668048 0.668048 1 1 0
1.36196 0.668236 0.668236 1 1 0
1.36378 0.668424 0.668424 1 1 0
1.3656 0.668611 0.668611 1 1 0
1.36743 0.668798 0.668798 1 1 0
1.36925 0.668984 0.668984 1 1 0
1.37108 0.66917 0.66917 1 1 0
1.3729 0.669355 0.669355 1 1 0
1.37473 0.66954 0.66954 1 1 0
1.37656 0.669725 0.669725 1 1 0
1.37838 0.669909 0.669909 1 1 0
1.38021 0.670092 0.670092 1 1 0
1.38204 0.670275 0.670275 1 1 0
1.38387 0.670458 0.670458 1 1 0
1.3857 0.67064 0.67064 1 1 0
1.38754 0.670821 0.670821 1 1 0
1.38937 0.671003 0.671003 1 1 0
1.3912 0.671183 0.671183 1 1 0
1.39304 0.671363 0.671363 1 1 0
1.39487 0.671543 0.671543 1 1 0
1.39671 0.671722 0.671722 1 1 0
1.39855 0.671901 0.671901 1 1 0
1.40038 0.67208 0.67208 1 1 0
1.40222 0.672257 0.672257 1 1 0
1.40406 0.672435 0.672435 1 1 0
1.4059 0.672612 0.672612 1 1 0
1.40774 0.672788 0.672788 1 1 0
1.40958 0.672964 0.672964 1 1 0
1.41143 0.673139 0.673139 1 1 0
1.41327 0.673315 0.673315 1 1 0
1.41511 0.673489 0.673489 1 1 0
1.41696 0.673663 0.673663 1 1 0
1.41881 0.673837 0.673837 1 1 0
1.42065 0.67401 0.67401 1 1 0
1.4225 0.674183 0.674183 1 1 0
1.42435 0.674355 0.674355 1 1 0
1.4262 0.674527 0.674527 1 1 0
1.42805 0.674698 0.674698 1 1 0
1.4299 0.674869 0.674869 1 1 0
1.43175 0.675039 0.675039 1 1 0
1.4336 0.675209 0.675209 1 1 0
1.43546 0.675378 0.675378 1 1 0
1.43731 0.675547 0.675547 1 1 0
1.43917 0.675716 0.675716 1 1 0
1.44102 0.675884 0.675884 1 1 0
1.44288 0.676051 0.676051 1 1 0
1.44474 0.676219 0.676219 1 1 0
1.4466 0.676385 0.676385 1 1 0
1.44846 0.676551 0.676551 1 1 0
1.45032 0.676717 0.676717 1 1 0
1.45218 0.676882 0.676882 1 1 0
1.45404 0.677047 0.677047 1 1 0
1.45591 0.677212 0.677212 1 1 0
1.45777 0.677375 0.677375 1 1 0
1.45964 0.677539 0.677539 1 1 0
1.4615 0.677702 0.677702 1 1 0
1.46337 0.677864 0.677864 1 1 0
1.46524 0.678026 0.678026 1 1 0
1.46711 0.678188 0.678188 1 1 0
1.46898 0.678349 0.678349 1 1 0
1.47085 0.67851 0.67851 1 1 0
1.47272 0.67867 0.67867 1 1 0
1.4746 0.67883 0.67883 1 1 0
1.47647 0.678989 0.678989 1 1 0
1.47834 0.679148 0.679148 1 1 0
1.48022 0.679306 0.679306 1 1 0
1.4821 0.679464 0.679464 1 1 0
1.48398 0.679622 0.679622 1 1 0
1.48586 0.679779 0.679779 1 1 0
1.48774 0.679936 0.679936 1 1 0
1.48962 0.680092 0.680092 1 1 0
1.4915 0.680247 0.680247 1 1 0
1.49338 0.680403 0.680403 1 1 0
1.49527 0.680557 0.680557 1 1 0
1.49715 0.680712 0.680712 1 1 0
1.49904 0.680866 0.680866 1 1 0
1.50093 0.681019 0.681019 1 1 0
1.50282 0.681172 0.681172 1 1 0
1.5047 0.681325 0.681325 1 1 0
1.5066 0.681477 0.681477 1 1 0
1.50849 0.681628 0.681628 1 1 0
1.51038 0.68178 0.68178 1 1 0
1.51227 0.68193 0.68193 1 1 0
1.51417 0.682081 0.682081 1 1 0
1.51607 0.682231 0.682231 1 1 0
1.51796 0.68238 0.68238 1 1 0
1.51986 0.682529 0.682529 1 1 0
1.52176 0.682678 0.682678 1 1 0
1.52366 0.682826 0.682826 1 1 0
1.52556 0.682973 0.682973 1 1 0
1.52747 0.683121 0.683121 1 1 0
1.52937 0.683267 0.683267 1 1 0
1.53128 0.683414 0.683414 1 1 0
1.53318 0.68356 0.68356 1 1 0
1.53509 0.683705 0.683705 1 1 0
1.537 0.68385 0.68385 1 1 0
1.53891 0.683995 0.683995 1 1 0
1.54082 0.684139 0.684139 1 1 0
1.54273 0.684282 0.684282 1 1 0
1.54465 0.684426 0.684426 1 1 0
1.54656 0.684568 0.684568 1 1 0
1.54848 0.684711 0.684711 1 1 0
1.55039 0.684853 0.684853 1 1 0
1.55231 0.684994 0.684994 1 1 0
1.55423 0.685135 0.685135 1 1 0
1.55615 0.685276 0.685276 1 1 0
1.55807 0.685416 0.685416 1 1 0
1.56 0.685556 0.685556 1 1 0
1.56192 0.685695 0.685695 1 1 0
1.56385 0.685834 0.685834 1 1 0
1.56577 0.685973 0.685973 1 1 0
1.5677 0.686111 0.686111 1 1 0
1.56963 0.686248 0.686248 1 1 0
1.57156 0.686386 0.686386 1 1 0
1.5735 0.686522 0.686522 1 1 0
1.57543 0.686659 0.686659 1 1 0
1.57736 0.686795 0.686795 1 1 0
1.5793 0.68693 0.68693 1 1 0
1.58124 0.687065 0.687065 1 1 0
1.58318 0.6872 0.6872 1 1 0
1.58512 0.687334 0.687334 1 1 0
1.58706 0.687468 0.687468 1 1 0
1.589 0.687601 0.687601 1 1 0
1.59095 0.687734 0.687734 1 1 0
1.59289 0.687866 0.687866 1 1 0
1.59484 0.687998 0.687998 1 1 0
1.59679 0.68813 0.68813 1 1 0
1.59874 0.688261 0.688261 1 1 0
1.60069 0.688392 0.688392 1 1 0
1.60264 0.688523 0.688523 1 1 0
1.60459 0.688652 0.688652 1 1 0
1.60655 0.688782 0.688782 1 1 0
1.60851 0.688911 0.688911 1 1 0
1.61046 0.68904 0.68904 1 1 0
1.61242 0.689168 0.689168 1 1 0
1.61439 0.689296 0.689296 1 1 0
1.61635 0.689423 0.689423 1 1 0
1.61831 0.689551 0.689551 1 1 0
1.62028 0.689677 0.689677 1 1 0
1.62224 0.689803 0.689803 1 1 0
1.62421 0.689929 0.689929 1 1 0
1.62618 0.690055 0.690055 1 1 0
1.62816 0.69018 0.69018 1 1 0
1.63013 0.690304 0.690304 1 1 0
1.6321 0.690428 0.690428 1 1 0
1.63408 0.690552 0.690552 1 1 0
1.63606 0.690675 0.690675 1 1 0
1.63804 0.690798 0.690798 1 1 0
1.64002 0.690921 0.690921 1 1 0
1.642 0.691043 0.691043 1 1 0
1.64398 0.691164 0.691164 1 1 0
1.64597 0.691286 0.691286 1 1 0
1.64796 0.691407 0.691407 1 1 0
1.64995 0.691527 0.691527 1 1 0
1.65194 0.691647 0.691647 1 1 0
1.65393 0.691767 0.691767 1 1 0
1.65592 0.691886 0.691886 1 1 0
1.65792 0.692005 0.692005 1 1 0
1.65991 0.692123 0.692123 1 1 0
1.66191 0.692241 0.692241 1 1 0
1.66391 0.692359 0.692359 1 1 0
1.66591 0.692476 0.692476 1 1 0
1.66792 0.692593 0.692593 1 1 0
1.66992 0.69271 0.69271 1 1 0
1.67193 0.692826 0.692826 1 1 0
1.67394 0.692941 0.692941 1 1 0
1.67595 0.693057 0.693057 1 1 0
1.67796 0.693172 0.693172 1 1 0
1.67998 0.693286 0.693286 1 1 0
1.68199 0.6934 0.6934 1 1 0
1.68401 0.693514 0.693514 1 1 0
1.68603 0.693627 0.693627 1 1 0
1.68805 0.69374 0.69374 1 1 0
1.69007 0.693852 0.693852 1 1 0
1.6921 0.693965 0.693965 1 1 0
1.69412 0.694076 0.694076 1 1 0
1.69615 0.694188 0.694188 1 1 0
1.69818 0.694298 0.694298 1 1 0
1.70021 0.694409 0.694409 1 1 0
1.70225 0.694519 0.694519 1 1 0
1.70428 0.694629 0.694629 1 1 0
1.70632 0.694738 0.694738 1 1 0
1.70836 0.694847 0.694847 1 1 0
1.7104 0.694956 0.694956 1 1 0
1.71244 0.695064 0.695064 1 1 0
1.71449 0.695172 0.695172 1 1 0
1.71653 0.695279 0.695279 1 1 0
1.71858 0.695387 0.695387 1 1 0
1.72063 0.695493 0.695493 1 1 0
1.72269 0.6956 0.6956 1 1 0
1.72474 0.695705 0.695705 1 1 0
1.7268 0.695811 0.695811 1 1 0
1.72886 0.695916 0.695916 1 1 0
1.73092 0.696021 0.696021 1 1 0
1.73298 0.696125 0.696125 1 1 0
1.73505 0.696229 0.696229 1 1 0
1.73711 0.696333 0.696333 1 1 0
1.73918 0.696436 0.696436 1 1 0
1.74125 0.696539 0.696539 1 1 0
1.74332 0.696642 0.696642 1 1 0
1.7454 0.696744 0.696744 1 1 0
1.74748 0.696846 0.696846 1 1 0
1.74955 0.696947 0.696947 1 1 0
1.75164 0.697048 0.697048 1 1 0
1.75372 0.697149 0.697149 1 1 0
1.7558 0.697249 0.697249 1 1 0
1.75789 0.697349 0.697349 1 1 0
1.75998 0.697449 0.697449 1 1 0
1.76207 0.697548 0.697548 1 1 0
1.76417 0.697647 0.697647 1 1 0
1.76626 0.697745 0.697745 1 1 0
1.76836 0.697843 0.697843 1 1 0
1.77046 0.697941 0.697941 1 1 0
1.77256 0.698038 0.698038 1 1 0
1.77467 0.698135 0.698135 1 1 0
1.77678 0.698232 0.698232 1 1 0
1.77889 0.698328 0.698328 1 1 0
1.781 0.698424 0.698424 1 1 0
1.78311 0.69852 0.69852 1 1 0
1.78523 0.698615 0.698615 1 1 0
1.78735 0.69871 0.69871 1 1 0
1.78947 0.698804 0.698804 1 1 0
1.79159 0.698898 0.698898 1 1 0
1.79371 0.698992 0.698992 1 1 0
1.79584 0.699085 0.699085 1 1 0
1.79797 0.699178 0.699178 1 1 0
1.80011 0.699271 0.699271 1 1 0
1.80224 0.699364 0.699364 1 1 0
1.80438 0.699455 0.699455 1 1 0
1.80652 0.699547 0.699547 1 1 0
1.80866 0.699638 0.699638 1 1 0
1.8108 0.699729 0.699729 1 1 0
1.81295 0.69982 0.69982 1 1 0
1.8151 0.69991 0.69991 1 1 0
1.81725 0.7 0.7 1 1 0
1.81941 0.70009 0.70009 1 1 0
1.82156 0.700179 0.700179 1 1 0
1.82372 0.700268 0.700268 1 1 0
1.82588 0.700356 0.700356 1 1 0
1.82805 0.700444 0.700444 1 1 0
1.83021 0.700532 0.700532 1 1 0
1.83238 0.700619 0.700619 1 1 0
1.83456 0.700707 0.700707 1 1 0
1.83673 0.700793 0.700793 1 1 0
1.83891 0.70088 0.70088 1 1 0
1.84109 0.700966 0.700966 1 1 0
1.84327 0.701052 0.701052 1 1 0
1.84546 0.701137 0.701137 1 1 0
1.84764 0.701222 0.701222 1 1 0
1.84983 0.701307 0.701307 1 1 0
1.85203 0.701391 0.701391 1 1 0
1.85422 0.701475 0.701475 1 1 0
1.85642 0.701559 0.701559 1 1 0
1.85862 0.701642 0.701642 1 1 0
1.86083 0.701725 0.701725 1 1 0
1.86303 0.701808 0.701808 1 1 0
1.86524 0.70189 0.70189 1 1 0
1.86745 0.701973 0.701973 1 1 0
1.86967 0.702054 0.702054 1 1 0
1.87189 0.702136 0.702136 1 1 0
1.87411 0.702217 0.702217 1 1 0
1.87633 0.702297 0.702297 1 1 0
1.87856 0.702378 0.702378 1 1 0
1.88079 0.702458 0.702458 1 1 0
1.88302 0.702538 0.702538 1 1 0
1.88525 0.702617 0.702617 1 1 0
1.88749 0.702696 0.702696 1 1 0
1.88973 0.702775 0.702775 1 1 0
1.89197 0.702853 0.702853 1 1 0
1.89422 0.702932 0.702932 1 1 0
1.89647 0.703009 0.703009 1 1 0
1.89872 0.703087 0.703087 1 1 0
1.90098 0.703164 0.703164 1 1 0
1.90324 0.703241 0.703241 1 1 0
1.9055 0.703317 0.703317 1 1 0
1.90776 0.703394 0.703394 1 1 0
1.91003 0.703469 0.703469 1 1 0
1.9123 0.703545 0.703545 1 1 0
1.91458 0.70362 0.70362 1 1 0
1.91685 0.703695 0.703695 1 1 0
1.91913 0.70377 0.70377 1 1 0
1.92142 0.703844 0.703844 1 1 0
1.9237 0.703918 0.703918 1 1 0
1.92599 0.703992 0.703992 1 1 0
1.92828 0.704065 0.704065 1 1 0
1.93058 0.704138 0.704138 1 1 0
1.93288 0.704211 0.704211 1 1 0
1.93518 0.704284 0.704284 1 1 0
1.93749 0.704356 0.704356 1 1 0
1.9398 0.704428 0.704428 1 1 0
1.94211 0.704499 0.704499 1 1 0
1.94442 0.70457 0.70457 1 1 0
1.94674 0.704641 0.704641 1 1 0
1.94906 0.704712 0.704712 1 1 0
1.95139 0.704782 0.704782 1 1 0
1.95372 0.704852 0.704852 1 1 0
1.95605 0.704922 0.704922 1 1 0
1.95838 0.704991 0.704991 1 1 0
1.96072 0.70506 0.70506 1 1 0
1.96307 0.705129 0.705129 1 1 0
1.96541 0.705198 0.705198 1 1 0
1.96776 0.705266 0.705266 1 1 0
1.97011 0.705334 0.705334 1 1 0
1.97247 0.705401 0.705401 1 1 0
1.97483 0.705469 0.705469 1 1 0
1.97719 0.705536 0.705536 1 1 0
1.97956 0.705602 0.705602 1 1 0
1.98193 0.705669 0.705669 1 1 0
1.9843 0.705735 0.705735 1 1 0
1.98668 0.705801 0.705801 1 1 0
1.98906 0.705866 0.705866 1 1 0
1.99145 0.705932 0.705932 1 1 0
1.99383 0.705997 0.705997 1 1 0
1.99623 0.706061 0.706061 1 1 0
1.99862 0.706126 0.706126 1 1 0
2.00102 0.70619 0.70619 1 1 0
2.00342 0.706254 0.706254 1 1 0
2.00583 0.706317 0.706317 1 1 0
2.00824 0.706381 0.706381 1 1 0
2.01066 0.706444 0.706444 1 1 0
2.01307 0.706506 0.706506 1 1 0
2.0155 0.706569 0.706569 1 1 0
2.01792 0.706631 0.706631 1 1 0
2.02035 0.706693 0.706693 1 1 0
2.02279 0.706754 0.706754 1 1 0
2.02522 0.706815 0.706815 1 1 0
2.02766 0.706876 0.706876 1 1 0
2.03011 0.706937 0.706937 1 1 0
2.03256 0.706998 0.706998 1 1 0
2.03501 0.707058 0.707058 1 1 0
2.03747 0.707118 0.707118 1 1 0
2.03993 0.707177 0.707177 1 1 0
2.0424 0.707237 0.707237 1 1 0
2.04487 0.707296 0.707296 1 1 0
2.04734 0.707355 0.707355 1 1 0
2.04982 0.707413 0.707413 1 1 0
2.0523 0.707471 0.707471 1 1 0
2.05478 0.707529 0.707529 1 1 0
2.05727 0.707587 0.707587 1 1 0
2.05977 0.707644 0.707644 1 1 0
2.06227 0.707702 0.707702 1 1 0
2.06477 0.707759 0.707759 1 1 0
2.06727 0.707815 0.707815 1 1 0
2.06979 0.707872 0.707872 1 1 0
2.0723 0.707928 0.707928 1 1 0
2.07482 0.707984 0.707984 1 1 0
2.07734 0.708039 0.708039 1 1 0
2.07987 0.708094 0.708094 1 1 0
2.0824 0.70815 0.70815 1 1 0
2.08494 0.708204 0.708204 1 1 0
2.08748 0.708259 0.708259 1 1 0
2.09003 0.708313 0.708313 1 1 0
2.09258 0.708367 0.708367 1 1 0
2.09513 0.708421 0.708421 1 1 0
2.09769 0.708475 0.708475 1 1 0
2.10025 0.708528 0.708528 1 1 0
2.10282 0.708581 0.708581 1 1 0
2.1054 0.708633 0.708633 1 1 0
2.10797 0.708686 0.708686 1 1 0
2.11055 0.708738 0.708738 1 1 0
2.11314 0.70879 0.70879 1 1 0
2.11573 0.708842 0.708842 1 1 0
2.11833 0.708893 0.708893 1 1 0
2.12093 0.708945 0.708945 1 1 0
2.12353 0.708996 0.708996 1 1 0
2.12614 0.709046 0.709046 1 1 0
2.12876 0.709097 0.709097 1 1 0
2.13138 0.709147 0.709147 1 1 0
2.134 0.709197 0.709197 1 1 0
2.13663 0.709247 0.709247 1 1 0
2.13926 0.709296 0.709296 1 1 0
2.1419 0.709346 0.709346 1 1 0
2.14455 0.709395 0.709395 1 1 0
2.14719 0.709443 0.709443 1 1 0
2.14985 0.709492 0.709492 1 1 0
2.15251 0.70954 0.70954 1 1 0
2.15517 0.709588 0.709588 1 1 0
2.15784 0.709636 0.709636 1 1 0
2.16051 0.709684 0.709684 1 1 0
2.16319 0.709731 0.709731 1 1 0
2.16587 0.709778 0.709778 1 1 0
